-5.748898 2.422704 -1.766798
-5.736325 2.458963 -1.767538
-5.725578 2.496053 -1.768912
-5.715915 2.533691 -1.770696
-5.698293 2.567829 -1.770085
-5.679037 2.601190 -1.769028
-5.661268 2.635195 -1.768497
-5.648271 2.671433 -1.769524
-5.625084 2.702826 -1.767422
-5.613796 2.739927 -1.769125
-5.586440 2.769146 -1.765825
-5.565891 2.801634 -1.764730
-5.557259 2.840161 -1.767486
-5.542562 2.875677 -1.768390
-5.517914 2.905998 -1.766182
-5.498851 2.939197 -1.765819
-5.482358 2.973775 -1.766350
-5.462254 3.006392 -1.765783
-5.448495 3.042527 -1.767337
-5.426857 3.074277 -1.766403
-5.405865 3.106353 -1.765742
-5.381478 3.136419 -1.764029
-5.356194 3.165870 -1.762075
-5.339583 3.200423 -1.763038
-5.328292 3.238259 -1.765837
-5.296800 3.263793 -1.762004
-5.276460 3.296098 -1.761933
-5.259813 3.330740 -1.763165
-5.237374 3.361730 -1.762525
-5.214818 3.392611 -1.761907
-5.195472 3.425579 -1.762439
-5.174614 3.457567 -1.762527
-5.156235 3.491238 -1.763530
-5.123854 3.515359 -1.759800
-5.098935 3.544471 -1.758678
-5.083530 3.580226 -1.760908
-5.067795 3.615865 -1.763110
-5.036139 3.640117 -1.759834
-5.010512 3.668610 -1.758712
-4.987807 3.699210 -1.758677
-4.960541 3.726384 -1.757092
-4.939220 3.757996 -1.757675
-4.903662 3.778672 -1.753239
-4.886432 3.813409 -1.755412
-4.867129 3.846630 -1.756923
-4.833626 3.868571 -1.753365
-4.817122 3.904092 -1.756035
-4.788381 3.929723 -1.754315
-4.764093 3.958959 -1.754283
-4.744154 3.991854 -1.755927
-4.707963 4.010998 -1.751608
-4.690713 4.046237 -1.754395
-4.661413 4.071113 -1.752746
-4.633346 4.096986 -1.751613
-4.607893 4.125135 -1.751526
-4.581346 4.152290 -1.751087
-4.551413 4.176314 -1.749408
-4.538163 4.215738 -1.754225
-4.504102 4.235879 -1.751072
-4.478157 4.263559 -1.751123
-4.457220 4.296073 -1.753211
-4.419470 4.312309 -1.748737
-4.403055 4.349350 -1.752769
-4.371768 4.371768 -1.750960
-4.339792 4.393379 -1.748918
-4.322188 4.429594 -1.752744
-4.290791 4.451739 -1.751055
-4.267475 4.482269 -1.752731
-4.228273 4.496014 -1.747928
-4.211105 4.533176 -1.752297
-4.182932 4.558626 -1.752180
-4.153535 4.582720 -1.751612
-4.111255 4.592388 -1.745632
-4.095966 4.632192 -1.751176
-4.062152 4.651153 -1.748888
-4.033511 4.675960 -1.748877
-4.003662 4.699351 -1.748405
-3.978819 4.728662 -1.750194
-3.946497 4.749097 -1.748761
-3.911718 4.766443 -1.746277
-3.887029 4.796068 -1.748360
-3.849010 4.809186 -1.744500
-3.823174 4.837451 -1.746210
-3.798411 4.867213 -1.748507
-3.760802 4.880472 -1.744947
-3.735802 4.910050 -1.747294
-3.704092 4.930867 -1.746581
-3.674149 4.954016 -1.746762
-3.639201 4.970347 -1.744614
-3.605304 4.987975 -1.743004
-3.576729 5.012944 -1.744027
-3.547134 5.036543 -1.744632
-3.513785 5.054791 -1.743452
-3.478537 5.070184 -1.741367
-3.449456 5.094525 -1.742424
-3.418980 5.116865 -1.742857
-3.385633 5.134887 -1.741887
-3.352617 5.153342 -1.741136
-3.318036 5.169303 -1.739617
-3.280035 5.179741 -1.736324
-3.254125 5.209269 -1.739496
-3.218398 5.223129 -1.737497
-3.192292 5.252656 -1.740771
-3.148101 5.252289 -1.734215
-3.119635 5.277971 -1.736341
-3.088187 5.298722 -1.736902
-3.051912 5.311123 -1.734796
-3.020383 5.331722 -1.735438
-2.984739 5.345011 -1.733769
-2.951668 5.362826 -1.733641
-2.919827 5.382902 -1.734306
-2.882910 5.393544 -1.732003
-2.850884 5.413265 -1.732685
-2.815645 5.426858 -1.731474
-2.775260 5.430270 -1.727097
-2.737756 5.438987 -1.724494
-2.713544 5.474268 -1.730369
-2.679246 5.489467 -1.729944
-2.639349 5.492977 -1.725914
-2.606707 5.511418 -1.726650
-2.574117 5.530052 -1.727507
-2.533915 5.532158 -1.723275
-2.504068 5.556802 -1.726133
-2.467535 5.566671 -1.724463
-2.430845 5.576001 -1.722700
-2.396568 5.590769 -1.722687
-2.366132 5.614656 -1.725541
-2.328660 5.621883 -1.723339
-2.291932 5.630688 -1.721694
-2.252870 5.633467 -1.718285
-2.224735 5.663665 -1.723300
-2.189295 5.675534 -1.722791
-2.152321 5.683292 -1.721105
-2.115290 5.690693 -1.719383
-2.081813 5.707623 -1.720606
-2.040949 5.704070 -1.715728
-2.005785 5.716127 -1.715620
-1.973684 5.737077 -1.718241
-1.936096 5.742112 -1.716158
-1.900140 5.751805 -1.715539
-1.868526 5.774836 -1.718956
-1.827180 5.767641 -1.713444
-1.794122 5.786374 -1.715707
-1.754130 5.782592 -1.711362
-1.721937 5.804440 -1.714669
-1.684102 5.807356 -1.712445
-1.647470 5.814166 -1.711440
-1.611646 5.823741 -1.711316
-1.574304 5.827679 -1.709602
-1.537540 5.833526 -1.708517
-1.503259 5.848849 -1.710271
-1.467772 5.859673 -1.710771
-1.429094 5.857519 -1.707550
-1.393882 5.869363 -1.708477
-1.355848 5.869172 -1.705968
-1.320498 5.880444 -1.706857
-1.284545 5.889140 -1.707061
-1.246284 5.886986 -1.704188
-1.210858 5.898022 -1.705199
-1.175122 5.907739 -1.705892
-1.137001 5.905232 -1.703122
-1.101024 5.913589 -1.703551
-1.065539 5.924797 -1.704864
-1.027195 5.919871 -1.701601
-0.992368 5.935127 -1.704204
-0.955591 5.938986 -1.703596
-0.918543 5.940926 -1.702504
-0.882073 5.946454 -1.702505
-0.845097 5.948428 -1.701554
-0.809534 5.960505 -1.703555
-0.771259 5.952349 -1.699840
-0.735167 5.960578 -1.700870
-0.697965 5.959727 -1.699373
-0.661364 5.963723 -1.699323
-0.624321 5.963486 -1.698132
-0.588644 5.976601 -1.700806
-0.550734 5.966804 -1.697024
-0.514837 5.978489 -1.699417
-0.478133 5.981404 -1.699380
-0.441255 5.981945 -1.698732
-0.404060 5.977404 -1.696707
-0.367608 5.983553 -1.697780
-0.330668 5.981739 -1.696658
-0.293768 5.979782 -1.695559
-0.257141 5.983102 -1.696021
-0.220276 5.980541 -1.694880
-0.183760 5.987757 -1.696574
-0.146633 5.973152 -1.692149
-0.110054 5.978008 -1.693301
-0.073418 5.982312 -1.694361
-0.036640 5.971293 -1.691144
0.000000 5.973266 -1.691671
0.036617 5.967529 -1.690078
0.073229 5.966952 -1.690011
0.109844 5.966564 -1.690060
0.146602 5.971923 -1.691801
0.183052 5.964688 -1.690037
0.219671 5.964093 -1.690219
0.256064 5.958035 -1.688916
0.292613 5.956266 -1.688891
0.329081 5.953041 -1.688518
0.365798 5.954103 -1.689424
0.402088 5.948232 -1.688426
0.437698 5.933723 -1.685038
0.473684 5.925739 -1.683565
0.509657 5.918338 -1.682319
0.546001 5.915527 -1.682441
0.584362 5.933123 -1.688433
0.618958 5.912258 -1.683544
0.655883 5.914297 -1.685239
0.690782 5.898394 -1.681884
0.727154 5.895605 -1.682329
0.763405 5.891728 -1.682528
0.799482 5.886497 -1.682403
0.835917 5.883811 -1.683070
0.871138 5.872736 -1.681399
0.906183 5.860988 -1.679596
0.944069 5.867377 -1.683055
0.980001 5.861165 -1.682967
1.015317 5.851417 -1.681925
1.052183 5.850531 -1.683494
1.086034 5.833077 -1.680358
1.121346 5.823924 -1.679672
1.156309 5.813159 -1.678581
1.195053 5.821040 -1.682943
1.227270 5.797171 -1.678188
1.264785 5.798551 -1.680802
1.299928 5.788843 -1.680269
1.330549 5.759658 -1.674136
1.369602 5.767123 -1.678717
1.405317 5.760061 -1.679139
1.438407 5.742441 -1.676544
1.473439 5.732823 -1.676344
1.510085 5.729360 -1.678009
1.544370 5.716869 -1.677095
1.575212 5.692086 -1.672629
1.613230 5.693327 -1.675871
1.645953 5.675807 -1.673655
1.679045 5.659856 -1.671958
1.715975 5.656813 -1.674137
1.748043 5.637760 -1.671642
1.780057 5.618891 -1.669254
1.820673 5.626943 -1.674933
1.853067 5.609313 -1.673039
1.883320 5.585588 -1.669378
1.921445 5.585228 -1.672762
1.958172 5.580439 -1.674895
1.987877 5.555744 -1.671113
2.022949 5.546239 -1.671956
2.055721 5.530436 -1.670963
2.087742 5.512769 -1.669464
2.123516 5.505007 -1.671028
2.153855 5.483222 -1.668396
2.190128 5.476578 -1.670432
2.225382 5.467190 -1.671702
2.258795 5.453213 -1.671634
2.289248 5.432216 -1.669472
2.321553 5.415774 -1.668766
2.357070 5.406770 -1.670417
2.386209 5.383201 -1.667627
2.418804 5.367592 -1.667358
2.454648 5.359099 -1.669367
2.484916 5.338419 -1.667643
2.516114 5.319875 -1.666642
2.549652 5.306300 -1.667259
2.585297 5.296978 -1.669283
2.616977 5.279456 -1.668790
2.644888 5.254490 -1.665997
2.674639 5.233387 -1.664478
2.710121 5.223472 -1.666582
2.742264 5.207016 -1.666669
2.769666 5.181680 -1.663968
2.807704 5.176195 -1.667708
2.830108 5.141967 -1.662244
2.863613 5.128100 -1.663410
2.897874 5.115463 -1.665047
2.931697 5.101918 -1.666462
2.954530 5.069393 -1.661728
2.987585 5.054561 -1.662844
3.021710 5.041419 -1.664589
3.047291 5.014070 -1.661701
3.080170 4.998799 -1.662873
3.109734 4.978125 -1.662312
3.140013 4.958622 -1.662202
3.165239 4.931254 -1.659507
3.196784 4.913809 -1.660206
3.225515 4.892040 -1.659507
3.252651 4.867936 -1.658069
3.285445 4.852297 -1.659578
3.306559 4.819515 -1.655274
3.338320 4.802374 -1.656391
3.365418 4.778526 -1.655256
3.397812 4.762183 -1.656786
3.432529 4.748938 -1.659474
3.456227 4.720444 -1.656897
3.483865 4.697449 -1.656298
3.517128 4.681980 -1.658422
3.535371 4.646619 -1.653549
3.578081 4.643350 -1.660168
3.595742 4.607518 -1.655214
3.626194 4.588212 -1.656241
3.656015 4.568047 -1.657028
3.682429 4.543620 -1.656332
3.714102 4.525646 -1.658057
3.737847 4.498013 -1.656305
3.758020 4.466252 -1.653069
3.786316 4.444238 -1.653489
3.822065 4.430836 -1.657197
3.843160 4.400408 -1.654605
3.865966 4.372081 -1.652843
3.895675 4.351580 -1.654098
3.928762 4.334721 -1.656822
3.943535 4.297727 -1.651899
3.975284 4.279319 -1.654169
3.998845 4.252059 -1.653085
4.028725 4.231502 -1.654672
4.058186 4.210410 -1.656131
4.079239 4.180608 -1.654222
4.100597 4.151230 -1.652523
4.125974 4.125974 -1.652516
4.144267 4.093719 -1.649751
4.170441 4.069319 -1.650199
4.199884 4.048041 -1.651990
4.221734 4.019425 -1.650853
4.256061 4.002609 -1.654641
4.276282 3.972462 -1.652994
4.291845 3.938138 -1.649639
4.313476 3.909507 -1.648701
4.345780 3.890483 -1.651893
4.366558 3.861082 -1.650755
4.390060 3.834123 -1.650714
4.409512 3.803671 -1.649222
4.438444 3.781380 -1.651334
4.457441 3.750606 -1.649808
4.487307 3.728950 -1.652362
4.509152 3.700566 -1.652014
4.525846 3.668024 -1.649853
4.549250 3.640971 -1.650209
4.576096 3.616617 -1.651867
4.595640 3.586472 -1.650947
4.618855 3.559205 -1.651410
4.628498 3.521584 -1.647101
4.665201 3.504522 -1.652478
4.681762 3.472232 -1.650767
4.713930 3.451457 -1.654611
4.725415 3.415526 -1.651255
4.740576 3.382395 -1.649269
4.765757 3.356425 -1.650833
4.784421 3.325840 -1.650199
4.808158 3.298767 -1.651373
4.823645 3.266045 -1.649778
4.843501 3.236324 -1.649747
4.861735 3.205534 -1.649227
4.881344 3.175662 -1.649237
4.902095 3.146523 -1.649694
4.926555 3.119706 -1.651452
4.938811 3.085175 -1.649184
4.962259 3.057655 -1.650718
4.979540 3.026306 -1.650258
4.994832 2.993787 -1.649207
5.018109 2.966039 -1.650853
5.037991 2.936229 -1.651435
5.050743 2.902290 -1.649747
5.068744 2.871408 -1.649840
5.080584 2.837079 -1.647997
5.100096 2.807063 -1.648708
5.113091 2.773474 -1.647376
5.144197 2.749631 -1.651931
5.152643 2.713628 -1.649265
5.172079 2.683457 -1.650185
5.195347 2.655197 -1.652380
5.214943 2.624982 -1.653458
5.226431 2.590693 -1.652029
5.235209 2.555150 -1.649817
5.247012 2.521164 -1.648631
5.274544 2.494674 -1.652441
5.277506 2.456562 -1.648615
5.304676 2.429720 -1.652414
5.321628 2.398092 -1.653080
5.332468 2.363721 -1.651911
5.341226 2.328496 -1.650167
5.359267 2.297331 -1.651354
5.366131 2.261398 -1.649163
5.388476 2.231980 -1.651790
5.407382 2.201037 -1.653414
5.407201 2.162384 -1.649271
5.432919 2.134096 -1.653090
5.445363 2.100508 -1.652924
5.451526 2.064548 -1.650918
5.471169 2.033691 -1.653056
5.476120 1.997374 -1.650818
5.495832 1.966440 -1.653092
5.491673 1.927024 -1.648253
5.517692 1.898211 -1.652536
5.525524 1.863068 -1.651426
5.540228 1.830244 -1.652433
5.538465 1.792045 -1.648597
5.557087 1.760477 -1.650893
5.564067 1.725193 -1.649791
5.574664 1.691056 -1.649826
5.588521 1.657882 -1.650885
5.607412 1.626119 -1.653487
5.613447 1.590595 -1.652357
5.615672 1.554066 -1.650174
5.632580 1.521599 -1.652368
5.642459 1.487181 -1.652558
5.649506 1.452025 -1.651981
5.650320 1.415331 -1.649649
5.666874 1.382581 -1.651974
5.659861 1.344129 -1.647494
5.675932 1.311207 -1.649799
5.685762 1.276781 -1.650348
5.694845 1.242165 -1.650741
5.712069 1.209254 -1.653552
5.723474 1.175023 -1.654735
5.724815 1.138737 -1.653072
5.729778 1.103219 -1.652519
5.737638 1.068264 -1.652864
5.748137 1.033768 -1.654030
5.747278 0.997247 -1.651991
5.779358 0.966323 -1.659477
5.757306 0.926358 -1.651482
5.755129 0.889816 -1.649260
5.767724 0.855561 -1.651334
5.782267 0.821491 -1.654023
5.781439 0.785213 -1.652377
5.780641 0.749011 -1.650804
5.783369 0.713310 -1.650302
5.795573 0.678740 -1.652565
5.799492 0.643152 -1.652526
5.799615 0.607166 -1.651469
5.803322 0.571577 -1.651495
5.802387 0.535558 -1.650262
5.811371 0.500445 -1.651913
5.808290 0.464295 -1.650196
5.817362 0.429114 -1.651994
5.812049 0.392882 -1.649770
5.820136 0.357568 -1.651412
5.819999 0.321727 -1.650782
5.816612 0.285752 -1.649293
5.826029 0.250390 -1.651496
5.842707 0.215200 -1.655818
5.820437 0.178625 -1.649165
5.815516 0.142763 -1.647492
5.818758 0.107122 -1.648193
5.819035 0.071414 -1.648116
5.829290 0.035769 -1.650927
5.825396 -0.000000 -1.649794
5.828570 -0.035764 -1.650724
5.819438 -0.071419 -1.648230
5.835629 -0.107433 -1.652972
5.825193 -0.143000 -1.650233
5.826247 -0.178803 -1.650812
5.830586 -0.214753 -1.652383
5.827764 -0.250465 -1.651988
5.820304 -0.285933 -1.650340
5.820537 -0.321756 -1.650934
5.814722 -0.357235 -1.649876
5.815619 -0.393123 -1.650783
5.815043 -0.428943 -1.651336
5.810622 -0.464481 -1.650859
5.811682 -0.500472 -1.652001
5.811768 -0.536424 -1.652930
5.804991 -0.571742 -1.651969
5.797345 -0.606928 -1.650822
5.791364 -0.642250 -1.650210
5.787662 -0.677814 -1.650310
5.779910 -0.712884 -1.649315
5.778708 -0.748760 -1.650252
5.780143 -0.785038 -1.652007
5.771415 -0.819949 -1.650919
5.777273 -0.856978 -1.654068
5.764457 -0.891258 -1.651933
5.760705 -0.926905 -1.652457
5.754876 -0.962229 -1.652447
5.739503 -0.995898 -1.649757
5.738782 -1.032085 -1.651339
5.742396 -1.069150 -1.654235
5.723869 -1.102081 -1.650815
5.719108 -1.137601 -1.651424
5.719262 -1.174158 -1.653517
5.712430 -1.209331 -1.653657
5.700848 -1.243475 -1.652481
5.696909 -1.279284 -1.653584
5.683379 -1.312928 -1.651964
5.688370 -1.350899 -1.655793
5.674144 -1.384355 -1.654093
5.667708 -1.419687 -1.654725
5.659024 -1.454471 -1.654764
5.642403 -1.487166 -1.652542
5.641772 -1.524083 -1.655065
5.638457 -1.560371 -1.656870
5.632129 -1.595889 -1.657856
5.609447 -1.626710 -1.654087
5.606442 -1.663199 -1.656179
5.596549 -1.697695 -1.656302
5.595047 -1.734799 -1.658977
5.570016 -1.764573 -1.654734
5.571473 -1.802725 -1.658422
5.561932 -1.837414 -1.658907
5.550464 -1.871477 -1.658880
5.528543 -1.901944 -1.655785
5.516123 -1.935604 -1.655592
5.506388 -1.970217 -1.656267
5.497760 -2.005267 -1.657342
5.500249 -2.044500 -1.661842
5.481846 -2.076031 -1.660100
5.470487 -2.110200 -1.660550
5.418685 -2.128504 -1.648759
5.363705 -2.144990 -1.636004
5.296014 -2.155706 -1.619361
5.269803 -2.182824 -1.615412
5.204862 -2.193436 -1.599600
5.166292 -2.214609 -1.591893
5.108700 -2.227126 -1.578328
5.088158 -2.255425 -1.576227
5.009027 -2.257224 -1.555975
4.942712 -2.263929 -1.539662
4.912880 -2.286837 -1.534711
4.881455 -2.308756 -1.529291
4.853723 -2.332191 -1.525058
4.865063 -2.374492 -1.533170
4.846776 -2.402502 -1.532024
4.859462 -2.446048 -1.540749
4.789324 -2.447690 -1.523244
4.678892 -2.427574 -1.492830
4.712988 -2.482085 -1.508540
4.640450 -2.480372 -1.490166
4.701016 -2.549954 -1.514611
4.690419 -2.581579 -1.516271
4.761669 -2.658992 -1.544550
4.802506 -2.720586 -1.563182
4.648458 -2.671126 -1.518346
4.668835 -2.721078 -1.530427
4.615372 -2.727994 -1.518360
4.438227 -2.660171 -1.465426
4.476699 -2.720706 -1.483613
4.390993 -2.705650 -1.460683
4.490072 -2.804857 -1.499340
4.502147 -2.850953 -1.509185
4.625677 -2.969098 -1.556672
4.516654 -2.938406 -1.526021
4.604977 -3.036242 -1.562127
4.493202 -3.002262 -1.530431
4.557531 -3.085862 -1.558762
4.327848 -2.969238 -1.486410
4.494144 -3.124057 -1.550079
4.314312 -3.038482 -1.494455
4.282955 -3.055883 -1.490061
4.303088 -3.110269 -1.503676
4.299247 -3.147834 -1.509055
4.356033 -3.230655 -1.535917
4.331296 -3.253692 -1.534205
4.205751 -3.199938 -1.496662
4.174026 -3.216428 -1.492367
4.170871 -3.254979 -1.498352
4.159855 -3.287651 -1.501613
4.162378 -3.331340 -1.509874
3.956383 -3.206496 -1.442261
4.025476 -3.303623 -1.474810
4.088042 -3.397160 -1.505341
4.068818 -3.423609 -1.505969
3.990276 -3.399558 -1.484591
3.920237 -3.381620 -1.466226
4.007494 -3.500003 -1.506865
4.122116 -3.644937 -1.558345
4.083472 -3.655657 -1.552186
3.998700 -3.624210 -1.528387
3.922378 -3.599120 -1.507628
3.888757 -3.612470 -1.503197
3.885795 -3.654393 -1.510691
3.857636 -3.672774 -1.508477
3.787008 -3.650092 -1.489589
3.767167 -3.675823 -1.490628
3.719690 -3.674320 -1.480735
3.697599 -3.697599 -1.480945
3.673413 -3.718771 -1.480369
3.661172 -3.752152 -1.484687
3.697926 -3.836637 -1.509110
3.641185 -3.824456 -1.495502
3.591424 -3.818839 -1.484661
3.541503 -3.812362 -1.473667
3.516970 -3.832850 -1.473216
3.196073 -3.526323 -1.347835
3.475120 -3.881808 -1.475531
3.481645 -3.937448 -1.488532
3.452082 -3.952624 -1.486233
3.348549 -3.881899 -1.451887
3.282031 -3.852327 -1.433267
3.326820 -3.953789 -1.463394
3.266922 -3.931317 -1.447630
3.359006 -4.092961 -1.499534
3.314032 -4.089068 -1.490630
3.363550 -4.202622 -1.524473
3.336529 -4.221700 -1.523938
3.295240 -4.222460 -1.516885
3.285267 -4.263360 -1.524308
3.261468 -4.286622 -1.525440
3.219268 -4.285472 -1.517973
3.177835 -4.284815 -1.510805
3.156246 -4.310737 -1.513088
3.134927 -4.337202 -1.515597
3.043688 -4.265863 -1.484114
3.120656 -4.430991 -1.534872
3.110723 -4.474963 -1.543463
2.826174 -4.119324 -1.414792
3.118038 -4.605053 -1.575016
3.066274 -4.589004 -1.563062
3.084693 -4.678460 -1.587055
3.018985 -4.640513 -1.567869
2.936705 -4.575211 -1.539688
2.959824 -4.674072 -1.566817
1.435628 -5.446863 -1.595272
1.365716 -5.313698 -1.553787
1.206909 -4.818252 -1.406721
1.194633 -4.896517 -1.427404
1.164975 -4.905479 -1.427906
1.231869 -5.332493 -1.549973
1.072764 -4.777234 -1.386639
1.135154 -5.204241 -1.508532
1.137835 -5.374712 -1.555893
1.063977 -5.182572 -1.498353
0.919830 -4.624298 -1.335291
0.898817 -4.668177 -1.346344
0.989771 -5.316053 -1.531417
0.981090 -5.455227 -1.569745
0.935387 -5.390769 -1.549517
0.895278 -5.354456 -1.537471
0.791892 -4.921602 -1.411760
0.759505 -4.912307 -1.407730
0.718065 -4.840800 -1.385950
0.697898 -4.912332 -1.405177
0.654437 -4.818544 -1.377175
0.613016 -4.731072 -1.351074
0.589699 -4.781152 -1.364317
0.574590 -4.906264 -1.398985
0.525649 -4.739935 -1.350613
0.500976 -4.785297 -1.362637
0.464637 -4.717541 -1.342506
0.476486 -5.162383 -1.468238
0.418755 -4.862754 -1.382263
0.427059 -5.342471 -1.517852
0.394393 -5.346657 -1.518325
0.355770 -5.263035 -1.493931
0.316052 -5.144379 -1.459672
0.277882 -5.026852 -1.425814
0.247806 -5.044209 -1.430279
0.220381 -5.127784 -1.453565
0.193299 -5.248102 -1.487308
0.155916 -5.080491 -1.439509
0.123881 -5.046334 -1.429588
0.092170 -5.006579 -1.418139
0.063456 -5.170625 -1.464468
0.031425 -5.121477 -1.450466
0.000000 -5.182762 -1.467795
-0.030964 -5.046210 -1.429150
-0.061707 -5.028059 -1.424089
-0.092236 -5.010159 -1.419153
-0.127612 -5.198352 -1.472654
-0.159871 -5.209335 -1.476016
-0.192878 -5.236675 -1.484069
-0.225098 -5.237537 -1.484677
-0.259780 -5.287948 -1.499391
-0.299003 -5.408937 -1.534188
-0.312114 -5.080275 -1.441483
-0.351859 -5.205182 -1.477509
-0.400669 -5.431734 -1.542485
-0.414638 -5.187088 -1.473706
-0.441986 -5.132515 -1.458944
-0.468407 -5.074855 -1.443344
-0.506324 -5.140794 -1.462954
-0.547616 -5.230796 -1.489495
-0.537349 -4.845436 -1.380675
-0.570789 -4.873809 -1.389731
-0.614896 -4.985448 -1.422613
-0.620711 -4.790458 -1.368033
-0.663096 -4.882302 -1.395397
-0.687839 -4.841525 -1.384923
-0.716391 -4.829519 -1.382720
-0.818906 -5.296500 -1.517830
-0.804401 -4.999341 -1.434060
-0.821011 -4.910282 -1.409931
-0.842543 -4.855694 -1.395715
-0.858172 -4.771760 -1.373077
-0.915913 -4.919359 -1.417140
-0.990024 -5.141878 -1.482963
-0.999071 -5.022671 -1.450324
-0.999286 -4.867469 -1.407252
-1.037452 -4.900540 -1.418628
-1.031965 -4.731158 -1.371401
-1.071546 -4.771809 -1.385064
-1.121434 -4.854445 -1.411021
-1.183702 -4.984335 -1.450860
-1.204776 -4.938093 -1.439524
-1.290208 -5.150801 -1.503811
-1.319788 -5.135001 -1.501534
-1.351723 -5.128521 -1.502036
-1.363743 -5.048235 -1.480945
-1.405824 -5.079995 -1.492765
-1.457044 -5.142126 -1.513621
-1.486934 -5.127452 -1.511958
-1.506351 -5.077729 -1.499994
-1.584771 -5.224291 -1.546132
-1.637327 -5.280682 -1.565765
-1.668058 -5.265360 -1.564228
-1.697447 -5.246102 -1.561571
-1.718595 -5.202262 -1.551631
-1.741435 -5.164784 -1.543611
-1.770377 -5.146106 -1.541246
-1.833886 -5.226246 -1.568589
-1.872389 -5.232978 -1.574028
-2.020552 -5.539668 -1.669975
-2.041168 -5.491284 -1.659134
-2.049456 -5.411675 -1.638849
-2.081820 -5.396915 -1.638217
-2.138150 -5.443241 -1.656231
-2.159924 -5.401050 -1.647394
-2.199006 -5.402392 -1.651888
-2.206969 -5.328094 -1.633280
-2.109123 -5.004792 -1.538113
-2.234719 -5.213205 -1.606348
-2.180264 -5.001204 -1.545117
-2.111920 -4.764415 -1.475937
-2.192549 -4.865506 -1.511393
-2.141279 -4.674938 -1.456250
-2.212156 -4.752441 -1.484592
-2.178923 -4.606945 -1.443291
-2.407664 -5.010796 -1.574411
-2.302138 -4.716816 -1.486451
-2.464882 -4.972621 -1.571802
-2.525403 -5.017115 -1.590735
-2.617037 -5.120680 -1.628632
-2.532132 -4.880417 -1.557128
-2.484866 -4.718269 -1.510230
-2.711229 -5.072352 -1.628860
-2.785914 -5.136025 -1.654765
-2.748385 -4.993485 -1.614244
-2.772552 -4.965030 -1.610514
-2.632142 -4.646380 -1.512364
-2.544625 -4.428311 -1.446439
-2.800507 -4.805120 -1.575101
-2.840544 -4.805789 -1.581004
-2.907860 -4.851472 -1.601872
-2.907368 -4.783837 -1.585401
-3.057921 -4.962691 -1.650862
-3.077935 -4.927220 -1.645313
-3.128764 -4.940858 -1.656247
-3.140228 -4.892289 -1.646394
-3.107234 -4.776162 -1.613700
-3.171287 -4.809794 -1.631607
-3.168036 -4.741301 -1.614936
-3.187345 -4.707412 -1.610024
-3.226057 -4.702178 -1.614974
-3.235799 -4.654893 -1.605523
-3.280809 -4.658391 -1.613643
-3.280536 -4.597816 -1.599602
-3.316488 -4.588394 -1.603374
-3.330089 -4.548168 -1.596427
-3.331104 -4.491474 -1.583672
-3.300186 -4.393189 -1.556128
-3.232521 -4.248575 -1.511901
-3.271315 -4.245255 -1.517834
-3.384869 -4.337309 -1.558143
-3.493835 -4.420739 -1.595787
-3.655530 -4.567441 -1.656808
-3.706806 -4.573697 -1.667297
-3.727207 -4.541614 -1.663907
-3.741369 -4.502252 -1.657865
-3.739731 -4.444516 -1.645024
-3.805300 -4.466521 -1.661780
-3.817457 -4.425494 -1.655199
-3.851184 -4.409595 -1.658060
-3.955603 -4.473453 -1.691166
-3.934495 -4.394942 -1.670580
-3.922086 -4.327355 -1.654006
-3.940705 -4.294643 -1.650714
-3.930503 -4.231113 -1.635535
-3.976303 -4.228090 -1.643766
-3.980926 -4.181297 -1.635040
-4.079810 -4.232844 -1.664955
-4.092398 -4.194094 -1.659559
-4.050508 -4.100522 -1.632337
-4.079677 -4.079677 -1.633973
-4.100724 -4.050706 -1.632417
-4.134830 -4.034571 -1.636109
-4.252316 -4.098578 -1.672614
-4.307980 -4.101538 -1.684578
-4.293959 -4.038249 -1.669374
-4.223112 -3.923070 -1.632442
-4.327930 -3.971249 -1.663509
-4.346136 -3.939108 -1.661185
-4.302678 -3.851897 -1.635510
-4.358088 -3.853593 -1.647553
-4.434117 -3.872601 -1.667281
-4.477731 -3.862517 -1.674736
-4.520939 -3.851662 -1.682026
-4.522073 -3.804990 -1.673730
-4.540590 -3.773228 -1.671983
-4.556463 -3.739392 -1.669347
-4.528670 -3.670313 -1.650883
-4.629363 -3.705090 -1.679270
-4.619983 -3.651303 -1.667709
-4.602535 -3.591854 -1.653424
-4.606815 -3.549927 -1.647105
-4.458072 -3.391916 -1.586453
-4.486844 -3.370540 -1.589302
-4.533859 -3.362539 -1.598617
-4.471707 -3.274106 -1.569589
-4.521871 -3.268405 -1.580128
-4.652613 -3.319634 -1.618666
-4.735679 -3.335242 -1.640415
-4.708794 -3.273269 -1.624114
-4.603547 -3.158388 -1.581099
-4.708412 -3.188022 -1.610366
-4.654679 -3.110157 -1.585432
-4.791194 -3.159023 -1.625297
-4.902484 -3.189416 -1.656380
-4.892785 -3.140547 -1.646561
-4.968248 -3.146109 -1.665429
-4.976772 -3.108889 -1.661860
-4.972346 -3.063870 -1.654073
-5.012759 -3.046495 -1.661267
-5.037932 -3.019620 -1.663438
-5.031685 -2.974064 -1.655319
-5.128095 -2.988743 -1.680971
-5.133903 -2.950076 -1.676909
-5.116645 -2.898543 -1.665431
-5.143169 -2.872027 -1.668297
-5.106382 -2.810522 -1.650740
-5.127136 -2.781093 -1.651901
-5.167960 -2.762332 -1.659562
-5.241179 -2.760256 -1.677604
-5.235270 -2.716243 -1.670347
-5.265369 -2.690983 -1.674650
-5.249192 -2.642221 -1.664317
-5.258414 -2.606547 -1.662139
-5.261152 -2.567812 -1.657993
-5.325257 -2.558760 -1.673215
-5.339310 -2.525306 -1.672731
-5.360895 -2.495378 -1.674664
-5.324217 -2.438671 -1.658501
-5.362002 -2.416285 -1.665622
-5.977592 -2.056427 -1.790275
-5.971633 -2.013484 -1.784756
-6.040938 -1.995656 -1.801776
-6.049710 -1.957465 -1.800776
-6.064774 -1.921311 -1.801717
-6.082791 -1.886029 -1.803597
-6.073080 -1.842249 -1.797332
-6.091625 -1.807132 -1.799505
-6.108067 -1.771307 -1.801118
-6.128523 -1.736544 -1.803973
-6.128016 -1.695851 -1.800727
-6.140111 -1.658705 -1.801257
-6.154120 -1.622039 -1.802413
-6.156175 -1.582248 -1.800137
-6.171502 -1.545881 -1.801812
-6.182088 -1.508281 -1.802166
-6.180981 -1.467887 -1.799184
-6.189281 -1.429797 -1.799012
-6.205488 -1.393489 -1.801204
-6.200385 -1.352434 -1.797280
-6.216497 -1.316043 -1.799576
-6.232372 -1.279499 -1.801865
-6.230251 -1.239274 -1.799019
-6.245247 -1.202468 -1.801185
-6.252394 -1.164104 -1.801152
-6.248808 -1.123810 -1.798099
-6.262682 -1.086678 -1.800138
-6.261804 -1.046989 -1.798006
-6.282829 -1.010916 -1.802228
-6.277994 -0.970658 -1.799098
-6.277745 -0.931215 -1.797356
-6.292561 -0.893988 -1.799993
-6.291008 -0.854421 -1.798016
-6.278477 -0.813517 -1.792974
-6.285692 -0.775266 -1.793642
-6.282879 -0.735811 -1.791517
-6.294960 -0.698098 -1.793707
-6.298997 -0.659446 -1.793670
-6.293075 -0.619814 -1.790867
-6.302292 -0.581699 -1.792441
-6.304045 -0.542872 -1.791958
-6.313199 -0.504656 -1.793646
-6.316234 -0.465913 -1.793662
-6.299795 -0.425853 -1.788219
-6.315764 -0.388017 -1.792042
-6.303924 -0.348478 -1.788042
-6.322128 -0.310586 -1.792631
-6.310508 -0.271212 -1.788831
-6.317679 -0.232694 -1.790425
-6.324006 -0.194079 -1.791847
-6.317414 -0.155084 -1.789676
-6.320337 -0.116356 -1.790268
-6.309713 -0.077436 -1.787090
-6.313631 -0.038740 -1.788099
-5.421918 2.687594 -1.763844
-5.163038 3.137827 -1.761014
-4.870172 3.565855 -1.759348
-4.826022 3.625332 -1.759339
-4.795963 3.649000 -1.756510
-4.735156 3.742327 -1.759175
-4.701652 3.762945 -1.755272
-4.681476 3.794157 -1.756399
-4.650773 3.816791 -1.753633
-4.626082 3.844272 -1.753184
-4.617960 3.885671 -1.759109
-4.579650 3.901681 -1.753602
-4.552976 3.927424 -1.752583
-4.543140 3.967817 -1.758136
-4.515859 3.993100 -1.757027
-4.488892 4.018602 -1.756096
-4.452070 4.035121 -1.751344
-4.434469 4.069008 -1.754208
-4.331738 4.175128 -1.753586
-4.310195 4.205684 -1.755279
-4.279101 4.226908 -1.753146
-4.222973 4.275117 -1.751513
-4.200673 4.305059 -1.753188
-4.163767 4.319951 -1.748814
-4.139453 4.347804 -1.749775
-4.094072 4.407192 -1.753323
-4.065416 4.430555 -1.752660
-4.029257 4.445600 -1.748799
-4.004033 4.472619 -1.749729
-3.975825 4.496323 -1.749426
-3.946223 4.518414 -1.748567
-3.909967 4.532738 -1.744793
-3.895543 4.572446 -1.750844
-3.865288 4.593735 -1.749881
-3.836866 4.617170 -1.749807
-3.814396 4.647855 -1.752533
-3.774920 4.657741 -1.747494
-3.745242 4.679532 -1.747015
-3.711740 4.696454 -1.744796
-3.694542 4.734118 -1.750334
-3.659588 4.749124 -1.747547
-3.632936 4.774851 -1.748778
-3.597430 4.788878 -1.745798
-3.570411 4.814143 -1.746989
-3.540867 4.836044 -1.747019
-3.513286 4.860666 -1.748093
-3.477642 4.874068 -1.745206
-3.447863 4.895590 -1.745304
-3.416776 4.915238 -1.744802
-3.386765 4.936421 -1.744912
-3.357209 4.958285 -1.745326
-3.319433 4.967883 -1.741502
-3.293103 4.994549 -1.743733
-3.261107 5.012681 -1.743045
-3.230406 5.032780 -1.743108
-3.197740 5.049783 -1.742169
-3.168549 5.072277 -1.743189
-3.132162 5.083177 -1.740297
-3.097698 5.097009 -1.738492
-3.059603 5.104640 -1.734659
-3.035109 5.134965 -1.738603
-3.002652 5.151960 -1.738086
-2.968836 5.166550 -1.736830
-2.932577 5.176722 -1.734168
-2.902323 5.197422 -1.735104
-2.871653 5.217449 -1.735874
-2.839489 5.234793 -1.735816
-2.807213 5.251925 -1.735752
-2.772315 5.264077 -1.734113
-2.738924 5.278987 -1.733456
-2.705857 5.294472 -1.733056
-2.675924 5.316148 -1.734744
-2.640473 5.326856 -1.732919
-2.603491 5.334255 -1.730096
-2.571723 5.352235 -1.730777
-2.543029 5.376784 -1.733637
-2.503636 5.378635 -1.729248
-2.471751 5.396439 -1.730064
-2.438984 5.412372 -1.730341
-2.402559 5.420087 -1.728062
-2.367372 5.430403 -1.726687
-2.334781 5.446632 -1.727260
-2.301552 5.461412 -1.727436
-2.264200 5.466263 -1.724543
-2.230645 5.480122 -1.724565
-2.196992 5.493742 -1.724576
-2.168852 5.521400 -1.729049
-2.130101 5.522079 -1.725136
-2.087281 5.511553 -1.717814
-2.059494 5.540588 -1.722892
-2.024166 5.549576 -1.721792
-1.987378 5.554350 -1.719458
-1.952890 5.565384 -1.719132
-1.918703 5.577258 -1.719130
-1.883774 5.586935 -1.718518
-1.844071 5.582081 -1.713512
-1.813918 5.606064 -1.717425
-1.775810 5.605486 -1.713878
-1.743713 5.623794 -1.716172
-1.708620 5.632566 -1.715617
-1.671884 5.635718 -1.713420
-1.638707 5.650819 -1.714922
-1.604588 5.662831 -1.715547
-1.568435 5.667594 -1.714042
-1.529543 5.661983 -1.709475
-1.495772 5.675053 -1.710618
-1.460447 5.682276 -1.710062
-1.428752 5.703898 -1.713898
-1.388364 5.690577 -1.707303
-1.355678 5.708491 -1.710150
-1.320980 5.718235 -1.710609
-1.286361 5.728426 -1.711264
-1.250354 5.732390 -1.710124
-1.214760 5.738078 -1.709565
-1.177872 5.737352 -1.707163
-1.142001 5.741226 -1.706199
-1.107804 5.753591 -1.707821
-1.072185 5.758697 -1.707352
-1.035776 5.759306 -1.705616
-0.999696 5.761390 -1.704385
-0.963831 5.764454 -1.703509
-0.930790 5.784848 -1.707816
-0.894422 5.784917 -1.706184
-0.857475 5.780628 -1.703336
-0.822515 5.789479 -1.704424
-0.786251 5.789074 -1.702853
-0.751628 5.800840 -1.704925
-0.713985 5.788841 -1.700079
-0.680220 5.808209 -1.704509
-0.643323 5.801040 -1.701214
-0.606898 5.797063 -1.698924
-0.572035 5.807971 -1.701060
-0.536258 5.809965 -1.700648
-0.501440 5.822918 -1.703507
-0.464555 5.811537 -1.699312
-0.428933 5.814907 -1.699496
-0.393493 5.821094 -1.700566
-0.357186 5.813918 -1.697798
-0.322047 5.825788 -1.700655
-0.285795 5.817489 -1.697688
-0.250040 5.817882 -1.697323
-0.214339 5.819335 -1.697332
-0.178718 5.823459 -1.698183
-0.142859 5.819421 -1.696717
-0.107109 5.818027 -1.696088
-0.071336 5.812696 -1.694374
-0.035729 5.822921 -1.697259
0.000000 5.823047 -1.697263
0.035680 5.814942 -1.694933
0.071355 5.814235 -1.694822
0.106833 5.803051 -1.691722
0.142521 5.805644 -1.692701
0.178363 5.811891 -1.694809
0.213760 5.803634 -1.692752
0.249351 5.801851 -1.692647
0.285409 5.809636 -1.695397
0.320431 5.796563 -1.692123
0.356142 5.796928 -1.692836
0.391658 5.793937 -1.692633
0.426644 5.783866 -1.690424
0.462586 5.786905 -1.692109
0.497264 5.774429 -1.689322
0.533395 5.778952 -1.691571
0.568660 5.773698 -1.691022
0.603424 5.763874 -1.689198
0.638443 5.757034 -1.688309
0.673907 5.754298 -1.688688
0.710222 5.758331 -1.691118
0.743557 5.738547 -1.686616
0.780276 5.745083 -1.689913
0.814462 5.732798 -1.687737
0.848722 5.721616 -1.685947
0.884118 5.718273 -1.686529
0.918525 5.708622 -1.685313
0.954880 5.710920 -1.687689
0.988223 5.695269 -1.684824
1.024196 5.694914 -1.686546
1.055610 5.669670 -1.680957
1.092514 5.674179 -1.684250
1.128501 5.673359 -1.686030
1.162144 5.660739 -1.684367
1.195647 5.647794 -1.682666
1.230195 5.639966 -1.682552
1.267027 5.642328 -1.685544
1.297725 5.617570 -1.680495
1.334256 5.618289 -1.683127
1.368294 5.608314 -1.682623
1.399977 5.589023 -1.679381
1.435597 5.585588 -1.680964
1.468359 5.571047 -1.679268
1.501589 5.558505 -1.678233
1.539758 5.563971 -1.682704
1.569119 5.537655 -1.677625
1.611524 5.557083 -1.686475
1.639084 5.525153 -1.679806
1.672939 5.514942 -1.679790
1.707467 5.506894 -1.680499
1.741593 5.497478 -1.680854
1.771346 5.474493 -1.677118
1.803701 5.459882 -1.676001
1.841531 5.461650 -1.679981
1.874872 5.449851 -1.679859
1.905819 5.431241 -1.677696
1.942372 5.428565 -1.680519
1.973580 5.410886 -1.678763
2.002504 5.387270 -1.675217
2.036328 5.377009 -1.675880
2.072055 5.371600 -1.678125
2.102312 5.352006 -1.676002
2.133599 5.335221 -1.674814
2.167167 5.324172 -1.675488
2.198276 5.307109 -1.674332
2.231625 5.295480 -1.674952
2.266887 5.288248 -1.677032
2.296443 5.267703 -1.674954
2.331484 5.259744 -1.676941
2.356021 5.228269 -1.671483
2.387108 5.211643 -1.670819
2.422285 5.203867 -1.673060
2.454478 5.189558 -1.673270
2.482595 5.166743 -1.670794
2.515279 5.153518 -1.671477
2.548720 5.141754 -1.672702
2.575624 5.116885 -1.669722
2.613134 5.113043 -1.673669
2.639342 5.087052 -1.670431
2.676735 5.082589 -1.674327
2.701604 5.054345 -1.670452
2.734327 5.040919 -1.671529
2.761290 5.016933 -1.669162
2.794975 5.005185 -1.670928
2.823886 4.984856 -1.669894
2.855316 4.968995 -1.670419
2.885769 4.951412 -1.670429
2.910202 4.923641 -1.667053
2.945163 4.913708 -1.669777
2.974011 4.893493 -1.669077
3.002198 4.872259 -1.668086
3.035066 4.858594 -1.669753
3.062734 4.836585 -1.668616
3.088161 4.811171 -1.666354
3.117022 4.791207 -1.666032
3.144164 4.768659 -1.664869
3.171236 4.746090 -1.663752
3.199812 4.725825 -1.663499
3.228092 4.705145 -1.663161
3.257815 4.686563 -1.663627
3.290797 4.672572 -1.665797
3.317218 4.649228 -1.664700
3.338870 4.619361 -1.661310
3.367262 4.598938 -1.661365
3.396506 4.579658 -1.661897
3.418654 4.550893 -1.659040
3.451495 4.536378 -1.661438
3.475578 4.510331 -1.659678
3.501925 4.487302 -1.659079
3.535354 4.473273 -1.661881
3.555644 4.442637 -1.658574
3.586356 4.425078 -1.660203
3.614569 4.404365 -1.660722
3.639140 4.379233 -1.659634
3.668357 4.359692 -1.660727
3.689020 4.330036 -1.658022
3.719062 4.311427 -1.659603
3.738006 4.280006 -1.656306
3.769430 4.262907 -1.658609
3.799149 4.243757 -1.660196
3.818768 4.213361 -1.657441
3.845990 4.191421 -1.658062
3.879531 4.176242 -1.661443
3.900772 4.147776 -1.659610
3.927712 4.125405 -1.660270
3.954260 4.102585 -1.660820
3.974203 4.072962 -1.658668
3.997494 4.046854 -1.657994
4.025207 4.025207 -1.659213
4.051012 4.001601 -1.659698
4.071333 3.972614 -1.658005
4.098500 3.950323 -1.659166
4.122778 3.925211 -1.659213
4.143615 3.896859 -1.657945
4.173163 3.876670 -1.660218
4.189897 3.844591 -1.657459
4.215146 3.820386 -1.658143
4.241071 3.796744 -1.659146
4.264023 3.770417 -1.659043
4.283138 3.740741 -1.657518
4.303056 3.711841 -1.656381
4.335756 3.693893 -1.660212
4.351356 3.661344 -1.657552
4.382199 3.641605 -1.660758
4.398948 3.610123 -1.658679
4.419220 3.581608 -1.658005
4.432582 3.547597 -1.654820
4.463041 3.527267 -1.658080
4.484346 3.499618 -1.657987
4.507889 3.473696 -1.658779
4.524190 3.442222 -1.656974
4.540458 3.410815 -1.655236
4.561416 3.382977 -1.655278
4.588477 3.359603 -1.657586
4.611427 3.333136 -1.658457
4.627165 3.301477 -1.656800
4.644721 3.271182 -1.655868
4.663300 3.241644 -1.655369
4.681175 3.211647 -1.654688
4.702307 3.183888 -1.655221
4.721539 3.154831 -1.655145
4.734197 3.121442 -1.652837
4.750843 3.090762 -1.651997
4.770915 3.062322 -1.652411
4.795875 3.036954 -1.654571
4.811272 3.005504 -1.653489
4.825009 2.973084 -1.651910
4.846420 2.945402 -1.653021
4.868903 2.918308 -1.654551
4.877333 2.882831 -1.651374
4.896619 2.853835 -1.651943
4.914315 2.823895 -1.652037
4.929119 2.792311 -1.651222
4.951201 2.764830 -1.652905
4.961667 2.730872 -1.650774
4.977977 2.700185 -1.650657
5.001690 2.673459 -1.653050
5.009690 2.638342 -1.650312
5.017192 2.603096 -1.647491
5.051251 2.581554 -1.653442
5.066840 2.550433 -1.653391
5.069445 2.512877 -1.649179
5.096616 2.487506 -1.653021
5.123385 2.461762 -1.656773
5.133748 2.428082 -1.655275
5.145061 2.394912 -1.654154
5.166489 2.366426 -1.656343
5.177865 2.333307 -1.655369
5.181401 2.296757 -1.651963
5.208866 2.270794 -1.656246
5.217708 2.236649 -1.654662
5.238019 2.207409 -1.656777
5.242900 2.171680 -1.654075
5.262890 2.142223 -1.656203
5.285152 2.113576 -1.659097
5.284217 2.075684 -1.654774
5.298536 2.043871 -1.655299
5.313905 2.012430 -1.656212
5.326444 1.979895 -1.656303
5.344455 1.949350 -1.658152
5.354309 1.915802 -1.657531
5.355204 1.879138 -1.654208
5.379088 1.850528 -1.658047
5.384820 1.815626 -1.656348
5.390385 1.780743 -1.654668
5.406577 1.749371 -1.656312
5.414003 1.715148 -1.655332
5.431404 1.684060 -1.657462
5.434177 1.648440 -1.655190
5.449974 1.616781 -1.656949
5.467252 1.585474 -1.659213
5.476190 1.551703 -1.659005
5.487520 1.518601 -1.659583
5.498962 1.485504 -1.660255
5.505825 1.451168 -1.659608
5.514664 1.417368 -1.659619
5.518246 1.382249 -1.658114
5.533821 1.350119 -1.660273
5.538375 1.315278 -1.659187
5.531407 1.277820 -1.654719
5.542457 1.244600 -1.655709
5.550274 1.210631 -1.655794
5.555405 1.176088 -1.655141
5.576234 1.144795 -1.659222
5.569695 1.107881 -1.655223
5.576550 1.073717 -1.655271
5.578746 1.038681 -1.654000
5.600778 1.007266 -1.658668
5.613870 0.974099 -1.660744
5.612753 0.938466 -1.658679
5.606509 0.902095 -1.655167
5.618108 0.868631 -1.656986
5.626584 0.834625 -1.657945
5.616869 0.797992 -1.653608
5.629185 0.764535 -1.655821
5.637225 0.730428 -1.656837
5.639800 0.695603 -1.656308
5.655115 0.662291 -1.659581
5.650152 0.626590 -1.656965
5.661031 0.592657 -1.659058
5.659004 0.557363 -1.657430
5.660358 0.522449 -1.656857
5.656023 0.487068 -1.654682
5.672387 0.453431 -1.658624
5.665624 0.417922 -1.655865
5.664491 0.382907 -1.654816
5.666571 0.348133 -1.654769
5.672225 0.313558 -1.655827
5.666004 0.278353 -1.653481
5.679216 0.244081 -1.656869
5.672995 0.208949 -1.654648
5.687273 0.174538 -1.658469
5.686664 0.139600 -1.658011
5.683875 0.104639 -1.656979
5.672703 0.069618 -1.653567
5.687855 0.034901 -1.657890
5.688031 -0.000000 -1.657910
5.690160 -0.034915 -1.658562
5.672937 -0.069621 -1.653635
5.687434 -0.104705 -1.658017
5.686629 -0.139599 -1.658001
5.675775 -0.174185 -1.655116
5.669152 -0.208807 -1.653528
5.679805 -0.244106 -1.657040
5.670070 -0.278553 -1.654668
5.668186 -0.313335 -1.654648
5.657145 -0.347554 -1.652016
5.670046 -0.383283 -1.656439
5.657253 -0.417304 -1.653419
5.664815 -0.452826 -1.656410
5.656237 -0.487086 -1.654745
5.658580 -0.522285 -1.656336
5.660821 -0.557542 -1.657962
5.659103 -0.592455 -1.658493
5.652271 -0.626825 -1.657586
5.638428 -0.660337 -1.654684
5.639633 -0.695582 -1.656259
5.631566 -0.729695 -1.655174
5.641896 -0.766261 -1.659560
5.628268 -0.799612 -1.656964
5.634724 -0.835832 -1.660343
5.623221 -0.869421 -1.658494
5.623890 -0.904891 -1.660298
5.612043 -0.938347 -1.658469
5.601108 -0.971884 -1.656968
5.602400 -1.007558 -1.659148
5.598388 -1.042338 -1.659823
5.581709 -1.074710 -1.656802
5.579346 -1.109801 -1.658091
5.570705 -1.143660 -1.657577
5.566891 -1.178520 -1.658563
5.546423 -1.209791 -1.654645
5.555735 -1.247582 -1.659676
5.540838 -1.279999 -1.657540
5.530882 -1.313498 -1.656942
5.524231 -1.347780 -1.657396
5.521479 -1.383058 -1.659085
5.505358 -1.414976 -1.656819
5.502284 -1.450235 -1.658540
5.485703 -1.481922 -1.656252
5.491125 -1.519599 -1.660673
5.480574 -1.552945 -1.660333
5.455849 -1.582167 -1.655752
5.458599 -1.619340 -1.659571
5.443677 -1.651321 -1.658084
5.442089 -1.687373 -1.660722
5.422710 -1.717906 -1.657994
5.413875 -1.751732 -1.658548
5.412358 -1.788002 -1.661413
5.395827 -1.819337 -1.659734
5.386433 -1.853055 -1.660311
5.381670 -1.888424 -1.662383
5.379247 -1.924725 -1.665251
5.367365 -1.957706 -1.665260
5.351694 -1.989280 -1.664154
5.328233 -2.017856 -1.660678
5.324806 -2.054004 -1.663506
5.312135 -2.086651 -1.663516
5.284981 -2.113507 -1.659043
5.250591 -2.137216 -1.652333
5.198454 -2.153270 -1.640053
5.088000 -2.144188 -1.609326
5.069597 -2.173159 -1.607693
4.976937 -2.169684 -1.582500
5.007058 -2.219476 -1.596378
4.907869 -2.211639 -1.569051
4.892388 -2.240878 -1.568468
4.871438 -2.267547 -1.566183
4.843495 -2.290803 -1.561689
4.819475 -2.315735 -1.558496
4.794608 -2.340106 -1.555069
4.745703 -2.352401 -1.543860
4.732942 -2.382363 -1.544435
4.719921 -2.412220 -1.544987
4.690948 -2.433829 -1.540362
4.672920 -2.460983 -1.539372
4.647292 -2.484030 -1.535922
4.612043 -2.501693 -1.529316
4.604711 -2.534405 -1.532013
4.612897 -2.575915 -1.539966
4.614856 -2.614283 -1.545946
4.594228 -2.639965 -1.544434
4.551644 -2.652777 -1.535561
4.481842 -2.649069 -1.517468
4.335530 -2.598617 -1.473300
4.449088 -2.703925 -1.517499
4.408264 -2.716292 -1.509231
4.364966 -2.726706 -1.500107
4.249611 -2.691037 -1.466111
4.338005 -2.784449 -1.502472
4.368780 -2.842203 -1.519143
4.335508 -2.858571 -1.513644
4.332411 -2.894824 -1.518736
4.416487 -2.990362 -1.554612
4.391242 -3.012731 -1.552204
4.373020 -3.039858 -1.552326
4.325898 -3.046641 -1.542206
4.291359 -3.061880 -1.536562
4.247914 -3.070389 -1.527723
4.222495 -3.091637 -1.525375
4.202209 -3.116570 -1.524926
4.204247 -3.158252 -1.532669
4.175554 -3.176963 -1.529287
4.018972 -3.096946 -1.478871
4.110872 -3.208156 -1.519903
4.008413 -3.167962 -1.489180
4.134002 -3.308630 -1.543351
4.099856 -3.322775 -1.538186
3.881061 -3.185104 -1.463403
3.831822 -3.184242 -1.452177
4.013644 -3.377184 -1.528908
3.885705 -3.310467 -1.487882
3.955993 -3.412463 -1.522786
3.898684 -3.404973 -1.508740
3.894586 -3.443746 -1.515303
3.861690 -3.457110 -1.510728
3.912147 -3.545763 -1.538950
3.888657 -3.568178 -1.538293
3.848844 -3.575393 -1.531194
3.802899 -3.576433 -1.521617
3.742849 -3.563488 -1.506310
3.773700 -3.637265 -1.527680
3.766426 -3.675101 -1.533835
3.643953 -3.599507 -1.492926
3.544169 -3.544169 -1.460926
3.647974 -3.693019 -1.513028
3.616204 -3.706067 -1.509254
3.634571 -3.770904 -1.526548
3.561351 -3.740604 -1.505407
3.494768 -3.716063 -1.486872
3.519937 -3.789146 -1.507444
3.474955 -3.787062 -1.498104
3.459013 -3.816433 -1.501298
3.319089 -3.707516 -1.450414
3.326949 -3.762498 -1.463910
3.357759 -3.844625 -1.487819
3.393410 -3.933905 -1.514283
3.083852 -3.619712 -1.386031
3.243412 -3.854662 -1.468348
3.226942 -3.883206 -1.471650
3.272852 -3.987982 -1.503719
3.206911 -3.956895 -1.484550
3.236742 -4.044181 -1.509818
3.203311 -4.053140 -1.505797
3.187894 -4.084908 -1.510303
3.207659 -4.162646 -1.531739
3.129260 -4.112857 -1.506324
3.108880 -4.138524 -1.508710
3.074006 -4.144817 -1.504099
3.017930 -4.121828 -1.489009
3.019748 -4.177852 -1.502526
3.049742 -4.274348 -1.530471
3.013487 -4.278822 -1.525423
3.052600 -4.391349 -1.558833
3.010776 -4.388394 -1.551197
2.823192 -4.169591 -1.467704
2.941869 -4.402818 -1.543417
2.894388 -4.389830 -1.532609
2.757633 -4.238786 -1.473941
2.783217 -4.336086 -1.501808
2.714809 -4.287152 -1.479062
2.788025 -4.463127 -1.533842
2.733289 -4.435847 -1.518675
2.698368 -4.439945 -1.514380
2.691253 -4.490084 -1.525821
2.691980 -4.554440 -1.542048
2.671776 -4.584242 -1.546559
2.668523 -4.643927 -1.561141
2.618265 -4.621884 -1.548301
2.575877 -4.612828 -1.539943
2.564916 -4.660145 -1.550456
2.530022 -4.664271 -1.546635
2.499629 -4.676478 -1.545568
2.473441 -4.696576 -1.547165
2.489690 -4.798615 -1.575717
0.760253 -4.724965 -1.394915
0.712173 -4.606175 -1.358530
0.707909 -4.772333 -1.406228
0.691869 -4.869896 -1.433699
0.658838 -4.850949 -1.426904
0.609638 -4.705006 -1.382848
0.589358 -4.778389 -1.403327
0.540176 -4.612413 -1.353584
0.512677 -4.622961 -1.355731
0.488125 -4.662542 -1.366434
0.468192 -4.753634 -1.392262
0.442558 -4.794803 -1.403498
0.427413 -4.963288 -1.452021
0.425254 -5.319895 -1.555554
0.390629 -5.295633 -1.547730
0.353389 -5.227810 -1.527245
0.312078 -5.079691 -1.483386
0.275524 -4.984195 -1.454978
0.245097 -4.989071 -1.455935
0.213265 -4.962198 -1.447684
0.187393 -5.087741 -1.483947
0.153290 -4.994895 -1.456564
0.123815 -5.043669 -1.470538
0.093392 -5.072944 -1.478879
0.062434 -5.087310 -1.482927
0.031358 -5.110490 -1.489600
0.000000 -5.039933 -1.469007
-0.030839 -5.025956 -1.464960
-0.061730 -5.029962 -1.466211
-0.092861 -5.044108 -1.470473
-0.125370 -5.107013 -1.489007
-0.150869 -4.916025 -1.433565
-0.177304 -4.813829 -1.404055
-0.214432 -4.989348 -1.455605
-0.241427 -4.914358 -1.434132
-0.279760 -5.060834 -1.477351
-0.285395 -4.645375 -1.356556
-0.330801 -4.893669 -1.429630
-0.389078 -5.274601 -1.541583
-0.406313 -5.082936 -1.486267
-0.424015 -4.923833 -1.440478
-0.450095 -4.876451 -1.427397
-0.465503 -4.726330 -1.384265
-0.479987 -4.584810 -1.343654
-0.520561 -4.694057 -1.376581
-0.545821 -4.660611 -1.367728
-0.588681 -4.772899 -1.401715
-0.620434 -4.788322 -1.407336
-0.649550 -4.782561 -1.406788
-0.677049 -4.765581 -1.402988
-0.754094 -5.083686 -1.497973
-0.746620 -4.828971 -1.424241
-0.774346 -4.812549 -1.420772
-0.820573 -4.907659 -1.450310
-0.837603 -4.827223 -1.428031
-0.861039 -4.787700 -1.417875
-0.925648 -4.971648 -1.474006
-0.918000 -4.767808 -1.415214
-0.957792 -4.815143 -1.430982
-1.009289 -4.916194 -1.462826
-1.027855 -4.855208 -1.446529
-1.041725 -4.775904 -1.424779
-1.115071 -4.965638 -1.483395
-1.137301 -4.923127 -1.472753
-1.153815 -4.858485 -1.455505
-1.229118 -5.037864 -1.511475
-1.284741 -5.128973 -1.541145
-1.225353 -4.767575 -1.434786
-1.234955 -4.685498 -1.412339
-1.299909 -4.811937 -1.452828
-1.334271 -4.821436 -1.458140
-1.395213 -4.923914 -1.491693
-1.487015 -5.127732 -1.556174
-1.532148 -5.164687 -1.570213
-1.609890 -5.307095 -1.616482
-1.638128 -5.283263 -1.612255
-1.665846 -5.258375 -1.607749
-1.691962 -5.229151 -1.601957
-1.692857 -5.124352 -1.573005
-1.783736 -5.290240 -1.627256
-1.789499 -5.201689 -1.603365
-1.814673 -5.171492 -1.597460
-1.838933 -5.139474 -1.591025
-1.962472 -5.380432 -1.669314
-1.972728 -5.307162 -1.650307
-2.028781 -5.357082 -1.669669
-2.009381 -5.209123 -1.627366
-2.020923 -5.144808 -1.611117
-2.108658 -5.272856 -1.655237
-2.070023 -5.085514 -1.600384
-2.046672 -4.941102 -1.558861
-2.175434 -5.162144 -1.632778
-2.043762 -4.767735 -1.511965
-1.986146 -4.555926 -1.448633
-2.045418 -4.614389 -1.471185
-1.943414 -4.312648 -1.378758
-2.057274 -4.491534 -1.439957
-1.896790 -4.074931 -1.310103
-2.219494 -4.692726 -1.513076
-2.323934 -4.836538 -1.564014
-2.281093 -4.673698 -1.515853
-2.288505 -4.616800 -1.501925
-2.445185 -4.857748 -1.585161
-2.428793 -4.752347 -1.555601
-2.484430 -4.788476 -1.572387
-2.404892 -4.566413 -1.504286
-2.497924 -4.673287 -1.544513
-2.508888 -4.625309 -1.533715
-2.603087 -4.729497 -1.573530
-2.677772 -4.795299 -1.600859
-2.561541 -4.521752 -1.514757
-2.776664 -4.832120 -1.624405
-2.781242 -4.772065 -1.609923
-2.873834 -4.862111 -1.646220
-2.861397 -4.773953 -1.622285
-2.876696 -4.733369 -1.614462
-2.712954 -4.402846 -1.507376
-2.968110 -4.751411 -1.632917
-3.052302 -4.820111 -1.662932
-3.060570 -4.768186 -1.651466
-3.064413 -4.710342 -1.637913
-3.131310 -4.749162 -1.658062
-3.149559 -4.713648 -1.652379
-3.199184 -4.724897 -1.663173
-3.202957 -4.668509 -1.650211
-3.230468 -4.647223 -1.649662
-3.268764 -4.641288 -1.654644
-3.303751 -4.630352 -1.657941
-3.281822 -4.540433 -1.632925
-3.328531 -4.546040 -1.642256
-3.149796 -4.247008 -1.541183
-3.244693 -4.319317 -1.574618
-3.263116 -4.288787 -1.570758
-3.312505 -4.298708 -1.581806
-3.375687 -4.325543 -1.599272
-3.365369 -4.258192 -1.581976
-3.477287 -4.344733 -1.622024
-3.443767 -4.249143 -1.594196
-3.475746 -4.235209 -1.596939
-3.488215 -4.197615 -1.590805
-3.700585 -4.397993 -1.675317
-3.710463 -4.355205 -1.667660
-3.742922 -4.339086 -1.670250
-3.804824 -4.356512 -1.685913
-3.832836 -4.334614 -1.686509
-3.857092 -4.308481 -1.685517
-3.785349 -4.176489 -1.642937
-3.887530 -4.236692 -1.675971
-3.915910 -4.215404 -1.677023
-3.869537 -4.114563 -1.646321
-3.886756 -4.082388 -1.642958
-3.915528 -4.062401 -1.644552
-3.952849 -4.051077 -1.649756
-4.012083 -4.061623 -1.664045
-3.932609 -3.932609 -1.621044
-4.052239 -4.002813 -1.660200
-3.981803 -3.885254 -1.621545
-4.189538 -4.038069 -1.696020
-4.196430 -3.995334 -1.688854
-4.213830 -3.962893 -1.686039
-4.088675 -3.798185 -1.626606
-4.014708 -3.683841 -1.588158
-4.079619 -3.697551 -1.604830
-4.148392 -3.713776 -1.622889
-4.187783 -3.703002 -1.629379
-4.319158 -3.772200 -1.671458
-4.318785 -3.725410 -1.662436
-4.390113 -3.740203 -1.681026
-4.301067 -3.619030 -1.638396
-4.367342 -3.629259 -1.655127
-4.328765 -3.552525 -1.632216
-4.325577 -3.505714 -1.622872
-4.388719 -3.512491 -1.638445
-4.307766 -3.404549 -1.600393
-4.363853 -3.405584 -1.613437
-4.373278 -3.369968 -1.609246
-4.385313 -3.336557 -1.606111
-4.406871 -3.310464 -1.606536
-4.448549 -3.299269 -1.614320
-4.442237 -3.252528 -1.604757
-4.476115 -3.235333 -1.609793
