4.604111 -10.217026 -1.475363
4.625507 -10.434977 -1.502709
4.574099 -10.492309 -1.506895
4.516003 -10.535038 -1.509023
4.451289 -10.562579 -1.509027
4.363464 -10.534334 -1.501139
4.324857 -10.625062 -1.510257
4.284116 -10.712748 -1.518956
4.256728 -10.836654 -1.532792
4.140100 -10.732805 -1.514482
4.081061 -10.776210 -1.517044
3.968791 -10.677105 -1.499636
3.922824 -10.755049 -1.507175
3.963689 -11.077768 -1.548962
3.880455 -11.058601 -1.542923
3.798357 -11.041011 -1.537188
3.774249 -11.193743 -1.555199
3.637171 -11.009875 -1.526524
3.586624 -11.084760 -1.533827
3.590441 -11.333516 -1.565170
3.517925 -11.345955 -1.563877
3.313542 -10.923283 -1.502787
3.370498 -11.361543 -1.560207
3.247749 -11.199343 -1.535167
3.293367 -11.622783 -1.590411
3.154275 -11.398085 -1.556987
3.056429 -11.314136 -1.542928
2.995506 -11.365141 -1.547348
2.995259 -11.653887 -1.584128
2.889506 -11.535555 -1.565604
2.828253 -11.592342 -1.570926
2.695058 -11.348355 -1.535593
2.695472 -11.668113 -1.576593
2.593438 -11.549103 -1.558332
2.616700 -11.996557 -1.616511
2.525862 -11.931234 -1.605590
2.475425 -12.057662 -1.620529
2.398910 -12.060133 -1.618852
2.331995 -12.111659 -1.623818
2.208323 -11.860883 -1.588349
2.118966 -11.782247 -1.576048
2.094160 -12.068939 -1.612648
2.048823 -12.253548 -1.635605
1.962252 -12.195369 -1.626201
1.877638 -12.144134 -1.617803
1.785330 -12.035718 -1.601870
1.770647 -12.463139 -1.657280
1.688299 -12.430759 -1.651565
1.600279 -12.350475 -1.639563
1.460625 -11.842431 -1.570900
1.391768 -11.883912 -1.575239
1.357554 -12.241474 -1.621501
1.310544 -12.518247 -1.657065
1.223759 -12.425029 -1.643701
1.147126 -12.428286 -1.643170
1.071486 -12.442527 -1.644152
0.995512 -12.453772 -1.644800
0.892067 -12.093460 -1.596460
0.854478 -12.640619 -1.667967
0.778004 -12.663582 -1.670336
0.684179 -12.376718 -1.631914
0.619113 -12.602328 -1.661129
0.547401 -12.736801 -1.678380
0.471491 -12.801061 -1.686434
0.389123 -12.679443 -1.670066
0.311369 -12.683755 -1.670351
0.234853 -12.756904 -1.679763
0.156009 -12.712115 -1.673708
0.078248 -12.752225 -1.678894
0.000000 -12.512671 -1.647324
-0.077252 -12.589945 -1.657529
-0.155644 -12.682386 -1.669793
-0.234259 -12.724667 -1.675518
-0.307468 -12.524869 -1.649427
-0.388571 -12.661460 -1.667698
-0.474002 -12.869235 -1.695416
-0.529854 -12.328534 -1.624581
-0.619337 -12.606886 -1.661730
-0.697128 -12.610971 -1.662801
-0.779712 -12.691381 -1.674002
-0.857528 -12.685732 -1.673920
-0.934829 -12.673164 -1.672987
-1.002302 -12.538709 -1.656018
-1.075107 -12.484571 -1.649708
-1.153546 -12.497837 -1.652365
-1.227984 -12.467936 -1.649377
-1.308675 -12.500398 -1.654703
-1.415480 -12.763813 -1.690689
-1.486658 -12.694150 -1.682638
-1.568652 -12.718291 -1.687082
-1.647904 -12.718025 -1.688357
-1.696524 -12.491319 -1.659611
-1.809622 -12.737475 -1.693759
-1.877019 -12.653837 -1.684137
-1.963476 -12.699317 -1.691762
-2.057134 -12.785061 -1.704834
-2.192050 -13.110153 -1.749944
-2.229977 -12.851675 -1.717237
-2.337244 -12.995958 -1.738399
-2.421053 -13.003452 -1.741356
-2.485722 -12.910066 -1.730860
-2.581848 -12.979825 -1.742304
-2.619279 -12.758367 -1.714703
-2.661029 -12.569716 -1.691511
-2.758387 -12.646134 -1.704040
-2.870648 -12.783575 -1.724901
-2.956449 -12.797826 -1.729239
-3.063927 -12.901591 -1.745767
-3.149560 -12.909304 -1.749393
-3.154596 -12.593854 -1.709236
-3.311309 -12.883569 -1.751281
-3.350267 -12.711126 -1.730602
-3.400730 -12.588648 -1.716736
-3.478578 -12.569967 -1.717066
-3.472264 -12.254138 -1.676803
-3.697684 -12.750872 -1.747845
-3.708133 -12.499670 -1.716498
-3.862027 -12.731397 -1.751541
-3.937107 -12.697895 -1.750223
-3.993356 -12.605348 -1.740811
-4.084073 -12.622169 -1.746562
-4.165602 -12.609457 -1.748307
-4.200470 -12.457838 -1.730826
-4.164746 -12.106024 -1.685465
-4.273249 -12.177991 -1.699104
-4.333096 -12.110193 -1.693322
-4.317373 -11.836771 -1.658763
-4.455668 -11.986932 -1.683606
-4.618258 -12.194702 -1.716736
-4.772903 -12.373286 -1.745966
-4.793622 -12.203463 -1.726121
-4.658594 -11.649158 -1.651729
-4.864815 -11.951599 -1.698813
-4.975975 -12.013065 -1.711857
-4.859409 -11.531017 -1.647384
-5.196303 -12.122057 -1.736345
-5.137570 -11.784828 -1.692525
-5.191990 -11.712942 -1.686744
-5.222129 -11.588476 -1.673403
-5.106844 -11.149494 -1.614508
-5.452013 -11.712720 -1.700878
-5.456478 -11.536754 -1.680155
-5.503338 -11.453470 -1.672913
-5.577237 -11.427119 -1.674031
-5.494017 -11.083558 -1.628608
-4.162435 -8.269338 -1.218819
-4.215747 -8.248828 -1.219586
-4.284634 -8.258179 -1.224832
-6.046153 -11.480448 -1.708222
-6.135072 -11.477913 -1.713414
-4.444263 -8.193306 -1.227138
-4.494364 -8.165720 -1.227113
-4.559916 -8.165806 -1.231308
-6.361903 -11.230329 -1.699256
-6.474359 -11.267076 -1.710795
-6.480667 -11.119551 -1.694401
-6.538232 -11.061741 -1.691674
-6.562575 -10.948994 -1.680558
-6.629474 -10.908260 -1.680518
-7.068810 -10.865542 -1.706554
-7.130236 -10.814211 -1.705331
-7.199594 -10.774953 -1.706075
-7.268789 -10.735326 -1.706830
-7.338168 -10.695836 -1.707679
-7.402375 -10.648763 -1.707383
-7.472192 -10.609697 -1.708438
-7.539456 -10.566880 -1.708961
-7.599553 -10.514058 -1.707927
-7.667284 -10.471820 -1.708676
-7.733832 -10.427865 -1.709215
-7.801013 -10.384665 -1.709948
-7.867259 -10.340117 -1.710529
-8.388106 -9.968918 -1.715224
-8.449240 -9.917407 -1.715249
-8.511221 -9.866871 -1.715508
-8.581801 -9.826137 -1.717549
-8.645787 -9.777657 -1.718316
-8.708392 -9.727521 -1.718863
-9.305704 -9.192201 -1.722046
-9.366282 -9.139175 -1.722847
-9.418769 -9.078242 -1.722222
-9.480288 -9.025985 -1.723312
-9.599051 -8.917062 -1.724878
-10.058436 -8.463429 -1.730626
-10.114762 -8.405361 -1.731411
-10.176726 -8.351823 -1.733213
-7.287972 -5.832895 -1.228941
-5.019108 -3.966743 -0.842231
-5.018240 -3.916273 -0.838037
-4.900629 -3.776335 -0.814512
-4.837295 -3.680447 -0.800217
-4.843599 -3.638536 -0.797551
-4.859947 -3.604382 -0.796586
-4.884929 -3.576660 -0.797069
-4.897458 -3.539879 -0.795554
-4.912302 -3.504922 -0.794457
-4.943826 -3.481835 -0.796085
-4.975885 -3.458934 -0.797815
-4.959346 -3.402494 -0.791801
-4.980695 -3.372382 -0.791890
-5.024309 -3.357136 -0.795535
-5.233729 -3.269404 -0.812424
-5.034834 -3.102374 -0.778580
-5.039656 -3.062841 -0.776405
-5.046909 -3.025001 -0.774648
-5.056660 -2.988825 -0.773316
-5.042193 -2.938678 -0.768331
-5.048239 -2.900852 -0.766526
-5.071261 -2.872834 -0.767330
-5.095552 -2.845438 -0.768350
-5.133538 -2.825469 -0.771449
-5.188842 -2.814564 -0.777150
-5.052684 -2.700716 -0.754261
-5.065519 -2.667745 -0.753719
-5.082328 -2.636891 -0.753798
-11.897673 -6.080570 -1.759066
-11.972280 -6.026339 -1.764597
-12.017630 -5.957027 -1.765860
-12.052434 -5.882434 -1.765637
-12.087936 -5.808195 -1.765584
-12.128476 -5.736342 -1.766331
-12.171015 -5.665339 -1.767430
-12.218334 -5.596408 -1.769282
-12.261353 -5.525348 -1.770568
-12.269652 -5.438763 -1.766914
-12.288367 -5.357086 -1.764843
-12.293181 -5.269658 -1.760857
-12.318758 -5.191379 -1.759925
-12.322242 -5.104040 -1.755915
-12.351907 -5.027758 -1.755713
-10.811791 -4.323724 -1.532999
-10.784544 -4.236258 -1.525422
-10.814343 -4.171552 -1.525987
-12.454802 -4.716761 -1.753352
-10.493032 -3.900369 -1.473782
-10.473786 -3.820235 -1.467759
-12.559603 -4.493898 -1.756161
-12.596255 -4.420017 -1.757461
-12.615832 -4.340132 -1.756444
-12.625777 -4.257094 -1.754158
-12.669804 -4.185538 -1.756674
-12.689502 -4.105860 -1.755879
-12.710576 -4.026692 -1.755343
-12.731451 -3.947511 -1.754848
-12.744054 -3.865866 -1.753282
-12.767652 -3.787633 -1.753298
-12.772144 -3.703853 -1.750761
-12.809394 -3.629598 -1.752782
-12.841209 -3.553641 -1.754118
-12.860561 -3.474185 -1.753817
-12.883920 -3.395810 -1.754128
-12.906361 -3.317167 -1.754379
-12.943347 -3.242140 -1.756669
-12.957058 -3.161211 -1.755864
-12.984208 -3.083548 -1.756947
-13.002834 -3.003808 -1.756940
-13.040567 -2.928357 -1.759577
-13.042527 -2.844848 -1.757453
-13.060026 -2.764829 -1.757492
-13.092046 -2.687783 -1.759549
-13.103123 -2.606373 -1.758855
-13.113002 -2.524795 -1.758068
-13.141682 -2.446789 -1.759867
-13.142284 -2.363560 -1.757973
-13.174220 -2.285944 -1.760335
-13.188473 -2.205145 -1.760399
-13.209508 -2.125428 -1.761432
-13.212848 -2.042874 -1.760173
-13.232517 -1.962859 -1.761156
-13.253735 -1.882967 -1.762409
-13.240303 -1.798249 -1.759122
-13.280020 -1.720723 -1.762963
-13.274657 -1.637273 -1.760884
-13.284506 -1.555796 -1.760891
-13.305455 -1.475547 -1.762435
-13.317930 -1.394263 -1.762921
-13.326302 -1.312526 -1.762930
-13.328219 -1.230190 -1.762152
-13.339948 -1.148768 -1.762737
-13.348091 -1.067001 -1.762915
-13.365234 -0.985879 -1.764347
-13.346468 -0.902192 -1.761106
-13.341990 -0.819683 -1.759818
-13.347401 -0.737838 -1.759902
-13.345360 -0.655616 -1.759069
-13.342890 -0.573449 -1.758246
-13.332259 -0.491056 -1.756415
-13.295615 -0.408032 -1.751225
-13.067718 -0.320794 -1.720916
-12.837477 -0.236336 -1.690372
-12.607233 -0.154722 -1.659899
-12.385999 -0.076000 -1.630678
-10.832027 0.398967 -1.511319
-10.652933 0.457841 -1.486695
-10.390742 0.510464 -1.450514
-10.242666 0.566210 -1.430301
-10.118710 0.621657 -1.413498
-9.926656 0.671020 -1.387219
-9.865548 0.727727 -1.379277
-9.726520 0.777505 -1.360481
-9.530525 0.820720 -1.333746
-9.400703 0.867681 -1.316298
-9.272741 0.913285 -1.299141
-9.154819 0.958424 -1.283420
-9.033332 1.001778 -1.267226
-8.910342 1.043522 -1.250848
-8.791419 1.084318 -1.235064
-8.696759 1.126859 -1.222714
-8.577729 1.164995 -1.206961
-8.464801 1.202600 -1.192087
-8.313788 1.233234 -1.171864
-8.222063 1.271235 -1.160012
-8.118303 1.306246 -1.146483
-8.030439 1.342709 -1.135216
-7.966495 1.382318 -1.127355
-7.876642 1.416566 -1.115849
-7.738808 1.440853 -1.097554
-7.654694 1.473845 -1.086887
-7.567691 1.505307 -1.075824
-7.486062 1.536881 -1.065541
-7.350567 1.556127 -1.047594
-7.286810 1.589406 -1.039878
-7.198204 1.616411 -1.028629
-7.131943 1.647563 -1.020586
-7.052057 1.674754 -1.010606
-6.966385 1.699630 -0.999804
-6.906632 1.730021 -0.992733
-6.830165 1.755475 -0.983272
-6.750267 1.779166 -0.973323
-6.676709 1.803663 -0.964294
-6.586726 1.822793 -0.952896
-6.524091 1.848630 -0.945458
-6.461339 1.873753 -0.938012
-6.377775 1.892021 -0.927549
-6.320058 1.917169 -0.920848
-6.251437 1.938319 -0.912566
-6.194428 1.962386 -0.905985
-5.389462 2.232388 -0.813358
-5.340961 2.250791 -0.808108
-5.294113 2.269401 -0.803111
-5.249448 2.288485 -0.798451
-5.186219 2.298893 -0.790964
-5.150089 2.320791 -0.787611
-5.096613 2.334420 -0.781609
-5.044112 2.347923 -0.775752
-4.997298 2.363546 -0.770768
-4.954754 2.380736 -0.766445
-4.905957 2.394452 -0.761155
-4.861293 2.409698 -0.756505
-4.812460 2.422389 -0.751205
-4.774504 2.440116 -0.747603
-4.722571 2.450236 -0.741812
-4.688382 2.469126 -0.738807
-4.662493 2.492154 -0.737124
-4.643743 2.518888 -0.736589
-4.775384 2.628343 -0.760014
-4.749030 2.651934 -0.758395
-4.719029 2.673297 -0.756209
-4.721260 2.712960 -0.759220
-4.730097 2.756783 -0.763347
-4.735722 2.799130 -0.767012
-4.762466 2.854512 -0.774166
-4.785483 2.908368 -0.780793
-4.801360 2.958512 -0.786331
-4.813153 3.006679 -0.791269
-4.841112 3.065601 -0.798943
-4.846036 3.110540 -0.802890
-4.867623 3.166736 -0.809671
-7.610409 5.290296 -1.292298
-7.532021 5.304647 -1.284490
-7.482182 5.338528 -1.281553
-7.446086 5.382025 -1.281002
-7.358512 5.457444 -1.277363
-7.303912 5.486736 -1.273705
-4.562315 3.515637 -0.803070
-4.582939 3.576561 -0.810548
-3.577839 2.827667 -0.635841
-3.558940 2.848381 -0.635576
-3.530317 2.861186 -0.633588
-3.497845 2.870607 -0.630910
-3.476939 2.889334 -0.630325
-3.559168 2.994776 -0.648551
-3.581434 3.051241 -0.656007
-3.547322 3.059941 -0.653186
-3.533084 3.085670 -0.654038
-3.551097 3.140019 -0.660927
-3.574416 3.199933 -0.668909
-3.596000 3.259225 -0.676678
-3.791678 3.479191 -0.717503
-3.745406 3.479304 -0.712774
-3.701405 3.480983 -0.708452
-3.681511 3.505090 -0.708747
-3.652147 3.520107 -0.707239
-3.859256 3.765679 -0.751806
-3.730388 3.684888 -0.731093
-3.688191 3.688191 -0.727244
-3.726421 3.772434 -0.739333
-4.018338 4.118193 -0.802249
-3.987772 4.137354 -0.801200
-3.916907 4.114056 -0.792019
-4.000436 4.253751 -0.814171
-3.917014 4.268824 -0.807794
-5.560018 6.526144 -1.195387
-5.504230 6.541550 -1.192000
-5.393569 6.572083 -1.185413
-5.300291 6.622505 -1.182686
-5.251036 6.644121 -1.180770
-5.195039 6.656827 -1.177341
-5.154353 6.688912 -1.177399
-2.337011 3.071587 -0.538134
-2.417819 3.218588 -0.561279
-2.409830 3.249280 -0.564042
-2.393607 3.269140 -0.564929
-2.356893 3.260785 -0.560976
-2.335779 3.273697 -0.560721
-2.321423 3.296168 -0.562119
-2.399514 3.591127 -0.602194
-4.542555 6.889555 -1.150609
-4.489617 6.901037 -1.147905
-4.439599 6.916631 -1.145946
-4.376919 6.911911 -1.140693
-4.336383 6.941769 -1.141208
-4.234573 6.967645 -1.136832
-4.138774 6.905127 -1.122467
-4.056797 6.863513 -1.111635
-4.080755 7.001774 -1.129952
-4.018734 6.993646 -1.124640
-2.635179 4.651741 -0.745426
-3.445207 6.169607 -0.985253
-3.390944 6.160938 -0.980528
-3.370083 6.212981 -0.985501
-2.622393 4.979405 -0.784668
-2.562591 4.939123 -0.775827
-2.504932 4.901327 -0.767462
-2.482876 4.932628 -0.769963
-2.455173 4.953035 -0.770782
-2.451075 5.021971 -0.779155
-2.438902 5.075809 -0.785171
-2.983832 6.308783 -0.973048
-2.991885 6.427554 -0.988517
-2.920145 6.375394 -0.977721
-2.891652 6.416894 -0.981346
-2.869945 6.474491 -0.987442
-2.647251 6.072404 -0.923624
-2.727629 6.363078 -0.965272
-2.877831 6.828879 -1.033236
-2.694073 6.504069 -0.981571
-2.834885 6.964582 -1.048425
-2.628858 6.573655 -0.987129
-2.757949 7.021107 -1.051760
-2.717025 7.043623 -1.052615
-2.673659 7.059907 -1.052577
-2.629722 7.074653 -1.052351
-2.590140 7.101285 -1.053928
-1.245739 3.550131 -0.524580
-1.249651 3.632468 -0.535603
-1.233617 3.658686 -0.538342
-1.203088 3.641801 -0.534762
-1.178519 3.642312 -0.533765
-1.152926 3.639305 -0.532277
-1.134305 3.658341 -0.534034
-1.110449 3.660661 -0.533368
-1.086858 3.663667 -0.532824
-1.066013 3.675974 -0.533652
-1.045058 3.688166 -0.534481
-1.021364 3.690737 -0.533936
-1.000339 3.703005 -0.534812
-0.979213 3.715196 -0.535695
-0.961317 3.740272 -0.538450
-0.936259 3.737756 -0.537251
-0.915332 3.751729 -0.538442
-0.892107 3.756487 -0.538329
-0.869934 3.765755 -0.538882
-0.848640 3.779164 -0.540046
-0.825510 3.784644 -0.540095
-0.802641 3.791379 -0.540343
-0.782081 3.809474 -0.542228
-0.875034 4.399091 -0.625376
-0.843832 4.382601 -0.622284
-0.816917 4.387654 -0.622278
-0.792054 4.404116 -0.623911
-0.764320 4.404884 -0.623344
-0.737320 4.409747 -0.623380
-0.711896 4.424422 -0.624826
-0.685018 4.430543 -0.625085
-0.656911 4.428536 -0.624221
-0.631441 4.444554 -0.625921
-0.604055 4.447592 -0.625815
-0.564091 4.353483 -0.612074
-0.710857 5.763475 -0.809683
-0.841949 7.189162 -1.009226
-0.797356 7.189997 -1.008637
-0.751013 7.173642 -1.005677
-0.707152 7.179839 -1.005919
-0.661580 7.167745 -1.003637
-0.617263 7.167908 -1.003110
-0.571713 7.152077 -1.000385
-0.500139 6.780216 -0.947925
-0.480729 7.111600 -0.993824
-0.392325 7.097118 -0.991052
-0.348170 7.087173 -0.989346
-0.283995 6.607930 -0.922185
-0.173658 7.074054 -0.986623
-0.130034 7.063299 -0.984993
-0.043053 7.016419 -0.978308
0.000000 7.006471 -0.976903
0.042907 6.992643 -0.974993
0.085622 6.976725 -0.972828
0.128209 6.964133 -0.971164
0.170879 6.960836 -0.970832
0.136956 4.462680 -0.622518
0.157993 4.289530 -0.598489
0.188417 4.384049 -0.611826
0.212699 4.329589 -0.604397
0.240006 4.341689 -0.606280
0.254375 4.140466 -0.578388
0.652964 6.629652 -0.928836
0.709513 6.777232 -0.950104
0.741488 6.686221 -0.937966
0.790066 6.746147 -0.947035
0.829053 6.721788 -0.944311
0.868574 6.703392 -0.942458
0.630210 4.640166 -0.652912
0.658102 4.632213 -0.652349
0.689091 4.645473 -0.654799
0.713658 4.615775 -0.651218
0.740130 4.599897 -0.649606
0.763098 4.563917 -0.645174
0.790508 4.555808 -0.644702
0.819015 4.554032 -0.645149
0.845596 4.541689 -0.644124
0.877215 4.555982 -0.646902
0.908893 4.569313 -0.649574
0.940572 4.581475 -0.652112
0.971448 4.588762 -0.653985
1.006393 4.613921 -0.658438
1.036778 4.616982 -0.659771
1.069112 4.627953 -0.662263
1.088875 4.585038 -0.657066
1.098608 4.502934 -0.646254
1.118172 4.463992 -0.641637
1.139973 4.435380 -0.638518
1.173718 4.453160 -0.642102
1.206275 4.465329 -0.644912
1.239433 4.478735 -0.647935
1.279941 4.517102 -0.654609
1.304810 4.499428 -0.653196
1.337923 4.509977 -0.655907
1.376081 4.536331 -0.660955
1.404986 4.531340 -0.661471
1.437615 4.537947 -0.663711
1.475741 4.560900 -0.668380
1.503121 4.550012 -0.668123
1.538435 4.562721 -0.671363
1.576111 4.581418 -0.675524
1.615922 4.605086 -0.680463
1.649617 4.610369 -0.682727
1.685337 4.620621 -0.685764
1.728047 4.648906 -0.691522
1.763053 4.655414 -0.694086
1.801338 4.669794 -0.697865
1.840866 4.686423 -0.702025
1.874789 4.688048 -0.703978
1.286272 3.160039 -0.475702
1.298190 3.134109 -0.472989
1.296408 3.076280 -0.465453
1.323040 3.086418 -0.468206
1.328890 3.048278 -0.463649
1.340262 3.023583 -0.461135
1.357022 3.011382 -0.460535
1.367434 2.985444 -0.457843
1.378148 2.960716 -0.455339
1.395319 2.950154 -0.455023
1.393785 2.900726 -0.448710
1.402797 2.874171 -0.445925
1.409178 2.842858 -0.442400
1.429052 2.839039 -0.443162
1.429522 2.797104 -0.437977
1.440050 2.775543 -0.435977
1.454547 2.761898 -0.435227
1.458988 2.729574 -0.431536
1.468340 2.706986 -0.429381
1.474327 2.678676 -0.426318
1.483045 2.655807 -0.424118
1.496468 2.641635 -0.423313
1.500760 2.611715 -0.419987
1.511677 2.593740 -0.418580
1.518823 2.569629 -0.416185
1.526230 2.546361 -0.413925
1.530429 2.518196 -0.410866
1.543176 2.504416 -0.410155
1.545775 2.474508 -0.406802
1.550080 2.447844 -0.403975
1.558728 2.428406 -0.402338
1.563699 2.403579 -0.399806
1.574579 2.388117 -0.398834
1.580242 2.364999 -0.396585
1.585685 2.341909 -0.394337
1.596428 2.326894 -0.393451
1.602260 2.304948 -0.391395
1.610061 2.286111 -0.389867
1.618533 2.268445 -0.388541
1.627827 2.252116 -0.387447
1.631964 2.228903 -0.385169
1.635216 2.204834 -0.382737
2.673363 3.558766 -0.620601
2.673642 3.514028 -0.615649
2.686590 3.486444 -0.613693
2.902835 3.719640 -0.657863
1.659524 2.099791 -0.373167
1.676285 2.094452 -0.374040
1.683107 2.076727 -0.372711
1.678071 2.044736 -0.368811
1.695591 2.040424 -0.369903
1.704427 2.025641 -0.369112
1.706269 2.002756 -0.366843
1.717331 1.990864 -0.366588
1.725581 1.975786 -0.365754
1.724556 1.950327 -0.362993
1.738291 1.941720 -0.363370
1.744904 1.925205 -0.362276
1.751166 1.908448 -0.361138
1.753114 1.887194 -0.359145
1.759423 1.870833 -0.358079
1.765740 1.854615 -0.357042
1.773962 1.840504 -0.356414
1.772758 1.816811 -0.353926
1.789734 1.811833 -0.355088
1.813453 1.813453 -0.357580
1.824086 1.801838 -0.357490
1.853659 1.808713 -0.361104
1.875009 1.807220 -0.363096
1.914251 1.822519 -0.368523
1.925522 1.810856 -0.368546
1.939694 1.801883 -0.369136
1.955166 1.794033 -0.369978
1.954269 1.771247 -0.367745
1.944423 1.740711 -0.363875
1.934122 1.710227 -0.359977
2.097552 1.831927 -0.388295
2.281232 1.967805 -0.420055
2.297954 1.957766 -0.420914
2.310634 1.944228 -0.421043
2.312752 1.921896 -0.419272
2.325675 1.908632 -0.419484
2.226520 1.804509 -0.399595
2.381249 1.905822 -0.425257
2.369469 1.872658 -0.421094
2.363828 1.844750 -0.418072
2.376488 1.831278 -0.418316
2.403663 1.828823 -0.421116
2.403795 1.805743 -0.419190
2.429279 1.801676 -0.421698
2.393707 1.752631 -0.413649
2.401055 1.735481 -0.413070
2.401758 1.713652 -0.411375
2.426888 1.709207 -0.413875
2.443996 1.698918 -0.415007
2.423439 1.662666 -0.409776
2.438355 1.650988 -0.410577
2.453976 1.639694 -0.411506
2.450556 1.615748 -0.409262
2.853739 1.686751 -0.462200
2.952411 1.720716 -0.476462
3.169235 1.821126 -0.509641
3.359315 1.903028 -0.538319
3.485118 1.946146 -0.556555
3.836115 2.080809 -0.608483
3.936340 2.104018 -0.622321
4.066344 2.141531 -0.640785
4.193817 2.175900 -0.658756
4.416810 2.257309 -0.691595
4.681169 2.356302 -0.730711
5.994345 2.925661 -0.930018
6.299038 3.026658 -0.974391
6.661725 3.150761 -1.027485
8.707971 4.053368 -1.339230
8.730835 3.999017 -1.338948
8.702630 3.921676 -1.330907
8.444569 3.743220 -1.287904
8.474104 3.694267 -1.288927
8.809430 3.776295 -1.336381
8.840132 3.725414 -1.337546
8.833490 3.658951 -1.333119
8.268802 3.365758 -1.244758
8.322196 3.328114 -1.249698
8.936970 3.510516 -1.338756
8.954500 3.454132 -1.338181
8.973144 3.398221 -1.337826
8.994037 3.343177 -1.337858
9.017812 3.289179 -1.338367
9.026498 3.229733 -1.336690
9.048260 3.175028 -1.337002
9.071354 3.120751 -1.337560
9.094036 3.066280 -1.338105
9.002093 2.973890 -1.321867
9.123531 2.952042 -1.337013
9.015341 2.856047 -1.318566
8.984937 2.785868 -1.311594
9.012063 2.733779 -1.313080
8.928893 2.648832 -1.298570
8.852452 2.567163 -1.285137
9.232227 2.615992 -1.337915
9.257043 2.561769 -1.339208
9.264981 2.502866 -1.338110
9.304768 2.452455 -1.341657
9.306927 2.392048 -1.339827
9.326680 2.336212 -1.340582
9.348669 2.280851 -1.341706
9.362602 2.223472 -1.341722
9.380055 2.166904 -1.342292
9.387451 2.108023 -1.341474
9.411389 2.052821 -1.343070
9.424170 1.995112 -1.343122
9.437854 1.937581 -1.343352
9.454067 1.880531 -1.343992
9.460639 1.821564 -1.343312
9.476481 1.764382 -1.343999
9.482193 1.705315 -1.343300
9.497085 1.647900 -1.343952
9.518689 1.591548 -1.345602
9.529605 1.533326 -1.345789
9.541221 1.475194 -1.346126
9.559888 1.418075 -1.347507
9.558815 1.358027 -1.346156
9.566807 1.299328 -1.346133
9.589941 1.242591 -1.348290
9.594043 1.183312 -1.347821
9.613198 1.125836 -1.349516
9.609369 1.065659 -1.348035
9.613980 1.006494 -1.347790
9.628150 0.948290 -1.348935
9.620159 0.887937 -1.347027
9.624496 0.828812 -1.346897
9.633607 0.770078 -1.347485
9.640491 0.711125 -1.347812
9.650726 0.652368 -1.348658
9.652745 0.593029 -1.348407
9.656180 0.533789 -1.348403
9.677143 0.475408 -1.350898
9.681516 0.416091 -1.351127
9.691497 0.356959 -1.352188
9.693214 0.297477 -1.352148
9.701514 0.238159 -1.353076
9.718384 0.178914 -1.355251
9.723438 0.119331 -1.355828
9.737716 0.059751 -1.357742
9.743916 -0.000000 -1.358581
9.741904 -0.059776 -1.358326
9.762956 -0.119816 -1.361338
9.765906 -0.179789 -1.361878
9.764766 -0.239712 -1.361898
9.758607 -0.299484 -1.361270
9.772758 -0.359952 -1.363526
9.762964 -0.419592 -1.362493
9.763474 -0.479649 -1.362949
9.768550 -0.540001 -1.364095
9.766703 -0.600031 -1.364325
9.773009 -0.660634 -1.365747
9.761175 -0.720028 -1.364685
9.772108 -0.781149 -1.366858
9.763172 -0.840754 -1.366304
9.767767 -0.901561 -1.367695
9.764128 -0.961683 -1.367986
9.765332 -1.022339 -1.369008
9.751412 -1.081411 -1.367961
9.724693 -1.138894 -1.365167
9.699986 -1.196379 -1.362704
9.698591 -1.256669 -1.363566
9.678852 -1.314546 -1.361899
9.664771 -1.373081 -1.361077
9.628805 -1.428298 -1.357221
9.621589 -1.487620 -1.357465
9.609919 -1.546249 -1.357131
9.586867 -1.602948 -1.355239
9.571275 -1.660774 -1.354450
9.559362 -1.719193 -1.354232
9.546467 -1.777413 -1.353925
9.536714 -1.836212 -1.354114
9.521179 -1.893880 -1.353533
9.505579 -1.951485 -1.352992
9.503947 -2.012001 -1.354491
9.487342 -2.069388 -1.353909
9.479855 -2.128773 -1.354679
9.466687 -2.186917 -1.354689
9.463360 -2.247401 -1.356161
9.450486 -2.305692 -1.356318
9.428686 -2.361763 -1.355244
9.431133 -2.423971 -1.357708
9.419559 -2.482710 -1.358209
9.405162 -2.540734 -1.358355
9.394545 -2.599821 -1.359101
9.370459 -2.655161 -1.357947
9.365637 -2.715984 -1.359638
9.345355 -2.772379 -1.359138
9.320249 -2.827267 -1.357984
9.306503 -2.885572 -1.358535
9.302074 -2.946883 -1.360503
9.285361 -3.004404 -1.360729
9.274708 -3.063950 -1.361897
7.131338 -2.404508 -1.049312
7.110976 -2.446337 -1.048505
7.093552 -2.489123 -1.048168
7.119157 -2.547275 -1.054241
7.166754 -2.614020 -1.063645
7.137199 -2.652971 -1.061654
9.179164 -3.476243 -1.368542
9.171696 -3.537914 -1.370640
9.154305 -3.595887 -1.371312
9.133364 -3.652507 -1.371507
9.120043 -3.712250 -1.372901
9.089641 -3.765053 -1.371777
9.083108 -3.827809 -1.374309
9.054137 -3.881193 -1.373503
9.046238 -3.943687 -1.375950
9.024065 -4.000093 -1.376285
9.002847 -4.056964 -1.376820
8.997512 -4.121164 -1.379845
8.975233 -4.177772 -1.380333
8.949524 -4.232810 -1.380348
8.928629 -4.290163 -1.381159
8.905929 -4.346719 -1.381748
8.888344 -4.405869 -1.383188
8.878240 -4.468930 -1.385857
8.847600 -4.521763 -1.385379
8.822633 -4.577493 -1.385841
8.808517 -4.638987 -1.388069
8.778202 -4.692047 -1.387803
8.762045 -4.752762 -1.389833
8.747675 -4.814668 -1.392213
8.704256 -4.860595 -1.390023
8.693368 -4.924732 -1.393084
8.665076 -4.979182 -1.393420
8.656336 -5.045063 -1.396966
8.606255 -5.086875 -1.393895
8.586987 -5.146842 -1.395863
8.551689 -5.197273 -1.395283
8.529746 -5.255875 -1.396938
8.501079 -5.310452 -1.397554
8.476277 -5.367543 -1.398864
8.446868 -5.421817 -1.399475
8.430306 -5.484516 -1.402280
8.400850 -5.539011 -1.403008
8.376861 -5.597240 -1.404711
8.352378 -5.655317 -1.406398
8.324959 -5.711563 -1.407655
8.303316 -5.771963 -1.409958
8.293358 -5.840841 -1.414326
8.271904 -5.901994 -1.416817
8.243374 -5.958305 -1.418165
8.200304 -6.004120 -1.417067
8.174723 -6.062788 -1.419048
8.135969 -6.111782 -1.418804
8.132509 -6.187604 -1.424795
8.099491 -6.241319 -1.425693
8.089047 -6.312754 -1.430646
8.095224 -6.397884 -1.438655
8.082110 -6.468480 -1.443351
8.072832 -6.542720 -1.448836
8.046131 -6.603289 -1.451288
8.039488 -6.680810 -1.457457
7.775795 -6.542755 -1.416904
7.680769 -6.543712 -1.406878
7.560760 -6.521957 -1.392200
7.144664 -6.239896 -1.322608
7.283122 -6.440022 -1.355528
7.571072 -6.777870 -1.416835
7.604325 -6.892159 -1.430945
7.574918 -6.950640 -1.433410
7.515850 -6.981867 -1.430313
7.461367 -7.017035 -1.428111
7.352342 -7.000012 -1.415438
7.194001 -6.933908 -1.393120
7.244471 -7.068812 -1.411266
6.875910 -6.792044 -1.347562
6.913835 -6.913835 -1.363283
6.722040 -6.805042 -1.333673
6.807469 -6.976633 -1.359090
6.661599 -6.911477 -1.338409
6.537104 -6.866135 -1.321836
6.551664 -6.966528 -1.333399
6.525046 -7.024090 -1.336728
6.941240 -7.564673 -1.431472
6.882505 -7.593674 -1.428941
6.812259 -7.609486 -1.424024
6.429312 -7.271009 -1.353274
6.551646 -7.501616 -1.388686
6.675211 -7.738425 -1.424915
4.794590 -5.627714 -1.030822
4.748005 -5.642808 -1.028231
4.710680 -5.668693 -1.027662
4.678566 -5.700849 -1.028268
4.652624 -5.740709 -1.030288
6.484713 -8.102393 -1.446973
5.674338 -7.179723 -1.275955
6.335783 -8.118555 -1.435865
6.319758 -8.201283 -1.443611
6.294337 -8.272790 -1.449372
5.592847 -7.445166 -1.298338
5.637984 -7.601941 -1.319619
5.604113 -7.653984 -1.322659
5.674054 -7.850110 -1.350509
5.661392 -7.934691 -1.359059
5.520376 -7.838331 -1.336727
5.883779 -8.464170 -1.437272
5.849448 -8.525934 -1.441638
5.799522 -8.565355 -1.442259
5.685026 -8.508243 -1.426742
5.681643 -8.617175 -1.439136
5.633035 -8.658597 -1.440254
5.568326 -8.675120 -1.437292
5.507615 -8.697474 -1.435369
5.463295 -8.745753 -1.437777
5.405546 -8.772647 -1.436719
5.352787 -8.807574 -1.437033
5.305781 -8.852160 -1.438969
5.261189 -8.901170 -1.441660
5.188660 -8.902720 -1.436728
5.152883 -8.967363 -1.442030
5.104504 -9.010710 -1.443937
5.051061 -9.045338 -1.444492
4.993741 -9.073028 -1.443994
4.940378 -9.107927 -1.444696
4.889034 -9.146739 -1.446067
4.763900 -9.045703 -1.425445
4.758340 -9.171197 -1.440593
4.738190 -9.271078 -1.451688
4.627289 -9.192844 -1.434965
4.554365 -9.187916 -1.429807
4.545052 -9.312290 -1.444794
4.515805 -9.398230 -1.453802
4.425306 -9.356524 -1.443123
4.406205 -9.465981 -1.455807
4.310976 -9.411920 -1.443398
4.204258 -9.329709 -1.426807
4.237494 -9.559633 -1.457966
4.155666 -9.532486 -1.449909
4.123009 -9.618251 -1.459079
4.094624 -9.716239 -1.470104
3.993514 -9.641196 -1.455015
3.990095 -9.802637 -1.475657
3.826271 -9.567874 -1.436755
3.728400 -9.491653 -1.421847
3.818404 -9.898841 -1.479306
3.749084 -9.899611 -1.475955
3.686221 -9.916915 -1.475135
3.649595 -10.005949 -1.485020
3.593457 -10.043040 -1.487224
3.538354 -10.083673 -1.489998
3.459051 -10.054720 -1.482556
3.371471 -9.999176 -1.471288
3.374049 -10.213392 -1.499733
3.278274 -10.131780 -1.484768
3.261415 -10.294918 -1.505714
3.204720 -10.335811 -1.508791
3.143081 -10.361348 -1.509675
3.024794 -10.196214 -1.482882
2.938952 -10.134507 -1.471257
2.878416 -10.158358 -1.472128
2.817979 -10.182868 -1.473147
2.780716 -10.293512 -1.486657
2.743922 -10.410614 -1.501110
2.664607 -10.367393 -1.492492
2.329268 -10.372702 -1.482268
0.880714 -10.227198 -1.431242
0.800702 -10.016714 -1.401072
-4.087273 -8.245611 -1.283167
-4.143879 -8.232474 -1.285055
-4.199927 -8.217874 -1.286775
-4.499744 -8.175496 -1.301149
-4.553375 -8.154092 -1.302165
-4.632788 -8.178014 -1.310500
-4.602367 -7.469169 -1.223245
-4.636600 -7.422363 -1.220216
-4.688123 -7.403355 -1.221797
-4.750756 -7.401395 -1.226261
-4.716568 -6.120789 -1.077397
-4.746042 -6.081491 -1.075585
-4.787745 -6.057920 -1.076592
-4.826321 -6.030298 -1.076926
-4.969008 -6.131084 -1.100349
-5.423629 -6.058347 -1.133747
-5.342513 -5.894555 -1.109209
-5.390538 -5.874694 -1.111675
-5.438685 -5.854643 -1.114175
-5.481328 -5.828415 -1.115563
-5.537326 -5.816035 -1.119676
-5.563290 -5.771971 -1.117743
-5.613412 -5.752905 -1.120700
-5.673943 -5.744003 -1.125727
-5.751107 -5.751107 -1.134014
-5.427313 -5.167232 -1.044841
-5.551422 -5.220830 -1.062546
-5.528803 -5.073153 -1.046222
-5.551221 -5.031334 -1.044602
-5.553827 -4.971966 -1.039332
-5.547076 -4.904942 -1.032417
-5.577145 -4.870881 -1.032431
-5.641147 -4.866087 -1.038732
-7.195466 -5.831649 -1.291375
-7.218976 -5.777674 -1.289207
-7.245183 -5.726073 -1.287588
-7.412287 -4.887212 -1.237910
-7.443773 -4.842706 -1.238182
-7.498483 -4.813074 -1.242347
-7.584762 -4.802998 -1.251735
-7.612226 -4.755203 -1.251429
-5.023889 -3.011203 -0.816662
-5.023710 -2.969350 -0.813655
-5.031724 -2.932576 -0.812024
-5.054479 -2.904437 -0.812804
-5.046740 -2.858943 -0.808724
-5.075942 -2.834487 -0.810601
-5.099758 -2.806876 -0.811639
-5.158683 -2.798205 -0.818269
-5.042517 -2.616236 -0.792068
-5.072941 -2.592639 -0.794333
-12.052117 0.000000 -1.774329
-11.749126 0.072093 -1.729755
-11.544285 0.141677 -1.699693
-11.454759 0.210880 -1.686671
-11.159947 0.273961 -1.643477
-10.986093 0.337155 -1.618149
-10.914977 0.402022 -1.608007
-9.067558 1.005573 -1.343122
-8.907965 1.043244 -1.320406
-8.788907 1.084008 -1.303719
-8.672782 1.123752 -1.287492
-8.574982 1.164622 -1.274010
-8.461921 1.202191 -1.258285
-8.352846 1.239028 -1.243173
-8.264913 1.277861 -1.231229
-8.125956 1.307477 -1.211701
-8.020914 1.341116 -1.197242
-7.935982 1.377024 -1.185804
-7.853848 1.412467 -1.174804
-7.743729 1.441769 -1.159634
-7.660800 1.475021 -1.148549
-7.587532 1.509254 -1.138931
-7.488621 1.537406 -1.125479
-7.405614 1.567781 -1.114428
-7.330559 1.598949 -1.104589
-7.220099 1.621327 -1.089423
-7.125085 1.645979 -1.076590
-7.057359 1.676013 -1.067891
-6.984983 1.704168 -1.058502
-6.910967 1.731107 -1.048875
-6.837149 1.757270 -1.039289
-6.726672 1.772947 -1.024130
-6.675920 1.803450 -1.018069
-6.594162 1.824850 -1.007289
-6.531403 1.850702 -0.999418
-6.466599 1.875279 -0.991244
-6.388541 1.895215 -0.981043
-6.327741 1.919499 -0.973497
-6.268924 1.943741 -0.966265
-6.204039 1.965430 -0.958105
-6.138937 1.986336 -0.949915
-6.064663 2.003494 -0.940307
-6.021732 2.030377 -0.935565
-5.944004 2.044872 -0.925420
-5.897997 2.069603 -0.920217
-5.845557 2.091574 -0.914021
-5.781251 2.108668 -0.905972
-5.699654 2.118621 -0.895205
-5.664127 2.145063 -0.891676
-5.612184 2.164858 -0.885573
-5.528645 2.171698 -0.874477
-5.484059 2.193120 -0.869537
-5.433299 2.211586 -0.863624
-5.026421 2.377320 -0.818590
-4.982988 2.394302 -0.813894
-4.941815 2.411953 -0.809571
-4.861118 2.409611 -0.798758
-4.814596 2.423464 -0.793542
-4.772818 2.439254 -0.789108
-4.737164 2.457808 -0.785692
-4.704681 2.477710 -0.782812
-4.676679 2.499737 -0.780690
-4.676773 2.536804 -0.783289
-4.793519 2.638324 -0.805539
-4.778441 2.668358 -0.805741
-4.743525 2.687174 -0.802619
-4.717793 2.710969 -0.801064
-4.749116 2.767867 -0.809251
-4.770974 2.819966 -0.815909
-5.245552 3.412606 -0.921301
-5.314065 3.503772 -0.937093
-5.049143 3.373730 -0.894009
-4.945715 3.348697 -0.879318
-5.036674 3.455547 -0.899243
-5.026182 3.493897 -0.901180
-7.020179 4.944168 -1.264114
-6.973796 4.975795 -1.261235
-6.927554 5.007231 -1.258405
-6.893367 5.047203 -1.257797
-6.885606 5.106714 -1.262075
-6.835262 5.134684 -1.258599
-6.789315 5.165638 -1.255951
-4.699036 3.620991 -0.873365
-3.638014 2.839134 -0.679388
-3.592796 2.839488 -0.674185
-3.570441 2.857586 -0.673268
-3.545019 2.873102 -0.671786
-3.510856 2.881285 -0.668649
-3.503047 2.911030 -0.670551
-3.561175 2.996465 -0.685185
-3.586646 3.055681 -0.693680
-3.563440 3.073845 -0.692827
-3.568125 3.116274 -0.697442
-3.572487 3.158933 -0.702070
-3.578256 3.203371 -0.707053
-3.823135 3.508056 -0.763890
-3.804497 3.534197 -0.764485
-3.713232 3.492105 -0.750437
-3.687338 3.510637 -0.749544
-4.028808 4.283919 -0.865772
-4.015600 4.322719 -0.868618
-3.966732 4.376614 -0.869600
-4.228253 4.723079 -0.933267
-4.195082 4.744284 -0.932353
-4.052866 4.698398 -0.913492
-4.103482 4.816517 -0.931545
-5.133567 6.101032 -1.173864
-3.875800 4.664022 -0.892785
-5.003138 6.173196 -1.169828
-4.959702 6.196951 -1.168541
-4.920745 6.226204 -1.168342
-4.876144 6.248201 -1.166833
-4.822039 6.257661 -1.163052
-2.428144 3.191365 -0.590369
-2.342685 3.118569 -0.574232
-2.380046 3.209120 -0.588205
-2.363962 3.228651 -0.589115
-2.339795 3.237130 -0.588032
-2.310407 3.238137 -0.585628
-2.293836 3.256997 -0.586483
-2.368825 3.407697 -0.610990
-2.347630 3.421816 -0.610928
-2.339033 3.454535 -0.614195
-2.413087 3.611439 -0.639447
-4.250857 6.447145 -1.136902
-4.209781 6.470897 -1.136514
-4.168998 6.495050 -1.136242
-4.113263 6.495552 -1.131893
-4.069266 6.514162 -1.130764
-4.025025 6.532202 -1.129587
-3.984985 6.556968 -1.129620
-3.936592 6.567807 -1.127304
-3.883778 6.570791 -1.123705
-3.788323 6.592671 -1.119412
-2.622926 4.630111 -0.783429
-3.685767 6.600397 -1.112959
-3.565915 6.478839 -1.088752
-3.393439 6.256039 -1.047793
-3.380204 6.323917 -1.055667
-2.536877 4.889562 -0.810969
-2.487305 4.866837 -0.804653
-2.430664 4.828900 -0.795900
-2.410614 4.863141 -0.799091
-2.418868 4.955984 -0.811892
-3.008347 6.360616 -1.035873
-2.949059 6.335550 -1.028825
-2.939023 6.416608 -1.039040
-2.847597 6.319130 -1.020406
-2.891029 6.522057 -1.050291
-2.840273 6.515168 -1.046355
-2.690857 6.277295 -1.005481
-2.812433 6.673695 -1.066191
-2.753722 6.648073 -1.059379
-2.753226 6.763967 -1.075134
-2.273857 5.685947 -0.901548
-2.644633 6.732630 -1.064914
-2.626820 6.809776 -1.074547
-2.582765 6.819898 -1.073623
-2.543798 6.843495 -1.074860
-2.498967 6.851319 -1.073661
-1.313013 3.669626 -0.573789
-1.259463 3.589242 -0.560001
-1.242037 3.610335 -0.562092
-1.220392 3.619463 -0.562337
-1.198165 3.626897 -0.562339
-1.172931 3.625041 -0.560925
-1.151853 3.635916 -0.561503
-1.127751 3.637203 -0.560623
-1.107547 3.651092 -0.561705
-1.082911 3.650363 -0.560561
-1.060060 3.655445 -0.560332
-1.038749 3.665900 -0.560947
-1.015203 3.668471 -0.560376
-0.995620 3.685536 -0.562039
-0.970994 3.684014 -0.560888
-0.949419 3.693981 -0.561508
-0.928549 3.706974 -0.562606
-0.903142 3.701768 -0.560965
-0.883987 3.722293 -0.563242
-0.860335 3.724205 -0.562722
-0.845099 3.763397 -0.567850
-0.817422 3.747564 -0.564693
-0.793524 3.748312 -0.564062
-0.769830 3.749798 -0.563564
-0.810035 4.072322 -0.611278
-0.845239 4.389907 -0.658159
-0.819745 4.402840 -0.659331
-0.794480 4.417606 -0.660800
-0.765201 4.409960 -0.658941
-0.738512 4.416875 -0.659285
-0.711109 4.419532 -0.659018
-0.686099 4.437533 -0.661062
-0.658566 4.439688 -0.660769
-0.635743 4.474839 -0.665407
-0.609387 4.486851 -0.666625
-0.582277 4.493841 -0.667120
-0.797017 6.805507 -1.008763
-0.752858 6.788751 -1.005576
-0.711967 6.800673 -1.006676
-0.668830 6.790745 -1.004580
-0.625587 6.777783 -1.002076
-0.582447 6.763608 -0.999433
-0.540936 6.767065 -0.999434
-0.498693 6.760619 -0.998012
-0.453187 6.704162 -0.989248
-0.404477 6.583680 -0.971086
-0.353641 6.397324 -0.943260
-0.291371 5.931000 -0.874223
-0.285615 6.645631 -0.979282
-0.244912 6.649403 -0.979598
-0.183065 5.965111 -0.878605
-0.164080 6.683861 -0.984303
-0.122849 6.673024 -0.982578
-0.073379 5.979179 -0.880329
-0.039189 6.386711 -0.940278
0.000000 6.661623 -0.980733
0.040742 6.639802 -0.977539
0.081436 6.635646 -0.976982
0.122220 6.638839 -0.977544
0.162139 6.604822 -0.972664
0.137069 4.466341 -0.657850
0.156529 4.249784 -0.626083
0.179955 4.187155 -0.617008
0.212279 4.321037 -0.636916
0.240067 4.342783 -0.640326
0.254602 4.144157 -0.611259
0.279528 4.135167 -0.610174
0.305264 4.138360 -0.610910
0.331947 4.152631 -0.613306
0.358780 4.166295 -0.615638
0.384191 4.162430 -0.615403
0.434504 4.411593 -0.652623
0.463392 4.426299 -0.655207
0.491447 4.431528 -0.656415
0.518569 4.427918 -0.656339
0.547886 4.442142 -0.658934
0.577685 4.458397 -0.661858
0.605295 4.456722 -0.662148
0.636884 4.482870 -0.666601
0.664985 4.482966 -0.667210
0.696398 4.504146 -0.670985
0.725244 4.507385 -0.672118
0.756161 4.522428 -0.675040
0.781882 4.506097 -0.673306
0.792253 4.405226 -0.658948
0.809596 4.348332 -0.651168
0.834024 4.331660 -0.649426
0.860946 4.328265 -0.649697
0.895094 4.359953 -0.655265
0.925426 4.371369 -0.657822
0.955657 4.381317 -0.660189
0.987661 4.398254 -0.663642
1.016779 4.401414 -0.665048
1.048419 4.414683 -0.668012
1.078824 4.421844 -0.670085
1.111606 4.437782 -0.673521
1.142750 4.446188 -0.675848
1.176730 4.464588 -0.679730
1.205632 4.462948 -0.680593
1.235973 4.466232 -0.682238
1.271551 4.487492 -0.686664
1.308976 4.513793 -0.691905
1.335610 4.502182 -0.691368
1.365459 4.501315 -0.692509
1.401213 4.519170 -0.696565
1.435388 4.530919 -0.699721
1.471237 4.546980 -0.703582
1.507777 4.564106 -0.707650
1.538136 4.561836 -0.708748
1.577692 4.586012 -0.713995
1.613085 4.597004 -0.717234
1.656475 4.629538 -0.723882
1.684247 4.617633 -0.723623
1.722349 4.633578 -0.727764
1.765290 4.661322 -0.733809
1.800294 4.667086 -0.736442
1.836216 4.674586 -0.739389
1.875175 4.689013 -0.743477
1.297726 3.188178 -0.506762
1.298992 3.136044 -0.499732
1.317385 3.126058 -0.499420
1.326378 3.094207 -0.495622
1.335388 3.063182 -0.491956
1.348445 3.042043 -0.489881
1.361269 2.924456 -0.474900
1.371533 2.899862 -0.472264
1.375539 2.862754 -0.467586
1.384517 2.836716 -0.464712
1.388464 2.801070 -0.460260
1.395955 2.773285 -0.457093
1.409554 2.758033 -0.455996
1.418257 2.733540 -0.453377
1.426631 2.708890 -0.450732
1.431024 2.677258 -0.446921
1.440850 2.656307 -0.444891
1.451654 2.637481 -0.443222
1.453079 2.602145 -0.438774
1.464295 2.584842 -0.437363
1.472146 2.561919 -0.435005
1.483949 2.546164 -0.433867
1.493638 2.527019 -0.432159
1.504740 2.510507 -0.430906
1.510162 2.484848 -0.428084
1.514800 2.458365 -0.425115
1.514986 2.425220 -0.420983
1.532283 2.419739 -0.421656
1.540618 2.400191 -0.419889
1.543550 2.372606 -0.416712
1.551316 2.352833 -0.414903
1.553671 2.325232 -0.411709
1.572269 2.322095 -0.412854
1.580909 2.304273 -0.411403
1.589477 2.286559 -0.409973
1.594665 2.264250 -0.407720
1.600078 2.242579 -0.405578
1.611715 2.229823 -0.405052
1.615728 2.206728 -0.402650
1.626329 2.192851 -0.401932
1.627204 2.166125 -0.398855
1.639462 2.154782 -0.398612
1.640737 2.129218 -0.395738
1.652533 2.117526 -0.395442
1.812781 1.683987 -0.364265
1.813141 1.663713 -0.362279
1.817534 1.647316 -0.361130
1.828440 1.636879 -0.361295
1.834550 1.622181 -0.360528
1.830784 1.598942 -0.357853
1.843513 1.590225 -0.358427
1.838423 1.566264 -0.355563
1.847633 1.554646 -0.355492
1.862185 1.547475 -0.356459
1.852129 1.520003 -0.352742
1.862487 1.509474 -0.352944
1.869697 1.496404 -0.352563
1.877712 1.484009 -0.352351
1.879028 1.466408 -0.350903
1.887921 1.454797 -0.350890
1.881162 1.431279 -0.347995
1.897657 1.425529 -0.349422
1.893653 1.404429 -0.347091
1.907074 1.396326 -0.347974
1.903130 1.375581 -0.345708
1.908060 1.361399 -0.345079
1.908360 1.344019 -0.343636
1.934274 1.344590 -0.346810
1.913528 1.312827 -0.341639
1.963612 1.329543 -0.349118
2.014334 1.345935 -0.356661
2.896288 1.711901 -0.495309
2.989453 1.742305 -0.509404
3.178437 1.826414 -0.539687
3.292337 1.865086 -0.557073
3.431832 1.916390 -0.578676
3.588942 1.975332 -0.603113
3.777667 2.049105 -0.632702
3.863883 2.065289 -0.645008
4.006323 2.109922 -0.666612
4.166289 2.161617 -0.691009
4.459221 2.278984 -0.737260
5.260005 2.607335 -0.864301
5.595549 2.731021 -0.916666
6.024582 2.894783 -0.984022
6.737652 3.186672 -1.097276
8.383998 3.902566 -1.361471
8.413333 3.791310 -1.358576
8.452347 3.623226 -1.353876
8.412404 3.545161 -1.343968
8.384997 3.473179 -1.336159
8.373176 3.408243 -1.330918
8.607275 3.381009 -1.361431
7.414605 -2.500018 -1.151968
7.120795 -2.449714 -1.108634
7.103897 -2.492753 -1.108364
7.205506 -2.578171 -1.126664
4.952692 -5.813287 -1.124326
4.761775 -5.659174 -1.088848
4.704194 -5.660887 -1.083604
4.678073 -5.700249 -1.085623
4.636742 -5.721113 -1.084158
5.631134 -7.215631 -1.347497
3.198369 -10.315328 -1.589960
3.148177 -10.378149 -1.596636
2.960467 -10.447931 -1.598715
2.828374 -10.469931 -1.596650
2.764513 -10.488737 -1.596901
2.646162 -10.564070 -1.603306
2.574639 -10.552836 -1.599173
2.537512 -10.684961 -1.616805
2.485146 -10.757656 -1.625467
2.412113 -10.741626 -1.620778
2.357195 -10.806825 -1.628403
2.298271 -10.856179 -1.633684
2.218401 -10.805710 -1.624010
2.170626 -10.912472 -1.638023
2.095415 -10.882933 -1.631628
1.977896 -10.623262 -1.590847
1.982024 -11.020800 -1.648527
1.904216 -10.974268 -1.639788
1.848534 -11.055666 -1.650225
1.780986 -11.068804 -1.650523
1.685224 -10.899645 -1.623727
1.647861 -11.108975 -1.653373
1.574162 -11.080136 -1.647613
1.514124 -11.148324 -1.656339
1.440143 -11.114590 -1.649984
1.376220 -11.158097 -1.655158
1.313546 -11.215997 -1.662519
1.232834 -11.116835 -1.646668
1.166098 -11.138508 -1.648788
1.087665 -11.043247 -1.633668
1.031695 -11.177673 -1.652587
0.902769 -11.293556 -1.667956
0.824864 -11.182407 -1.650762
0.749577 -11.088779 -1.636230
0.687835 -11.195901 -1.651383
0.622841 -11.267127 -1.661294
0.553130 -11.259218 -1.659596
0.487171 -11.335377 -1.670350
0.412816 -11.208035 -1.651181
0.352944 -11.500569 -1.693926
0.275078 -11.205436 -1.650176
0.206729 -11.229256 -1.653466
0.141687 -11.545117 -1.699816
0.070724 -11.526004 -1.696906
0.000000 -11.090516 -1.632761
-0.068934 -11.234342 -1.653966
-0.135903 -11.073821 -1.630425
-0.209597 -11.385058 -1.676407
-0.274947 -11.200108 -1.649392
-0.339152 -11.051154 -1.627732
-0.412576 -11.201514 -1.650220
-0.489183 -11.382206 -1.677250
-0.567786 -11.557551 -1.703570
-0.645992 -11.685918 -1.723043
-0.718416 -11.693656 -1.724801
-0.790527 -11.694566 -1.725619
-0.862597 -11.693947 -1.726276
-0.936367 -11.713869 -1.730032
-1.008599 -11.712252 -1.730675
-1.080205 -11.703244 -1.730291
-1.151408 -11.690437 -1.729409
-1.228330 -11.732946 -1.736780
-1.299854 -11.721177 -1.736186
-1.361133 -11.622331 -1.722749
-1.409889 -11.431075 -1.695650
-1.492177 -11.516172 -1.709599
-1.558569 -11.475565 -1.704959
-1.638159 -11.530595 -1.714596
-1.695265 -11.428549 -1.700936
-1.772302 -11.462845 -1.707627
-1.835908 -11.410148 -1.701423
-1.914761 -11.451755 -1.709347
-1.984390 -11.436319 -1.708828
-2.066283 -11.489310 -1.718608
-2.122680 -11.400895 -1.707299
-2.188515 -11.366466 -1.704122
-2.272209 -11.423169 -1.714681
-2.305827 -11.231559 -1.688012
-2.416622 -11.415228 -1.717812
-2.503780 -11.478860 -1.729667
-2.562968 -11.413416 -1.722143
-2.613827 -11.314691 -1.709634
-2.704273 -11.387158 -1.723059
-2.768542 -11.347601 -1.719611
-2.831331 -11.303307 -1.715499
-2.907910 -11.314033 -1.719803
-2.972859 -11.279215 -1.717251
-3.047558 -11.281296 -1.720382
-3.113541 -11.250892 -1.718627
-3.184163 -11.237387 -1.719516
-3.267457 -11.267300 -1.727129
-3.340377 -11.260009 -1.729120
-3.399025 -11.205083 -1.723856
-3.456228 -11.146971 -1.718146
-3.531588 -11.147741 -1.721572
-3.585289 -11.080635 -1.714574
-3.668796 -11.105605 -1.721889
-3.727245 -11.054339 -1.717454
-3.786087 -11.005345 -1.713419
-3.870420 -11.030002 -1.720923
-3.941521 -11.015813 -1.722450
-4.013113 -11.002593 -1.724201
-4.047516 -10.888895 -1.710243
-4.133139 -10.913726 -1.718094
-4.180106 -10.836516 -1.709945
-4.266718 -10.862087 -1.718079
-4.323085 -10.810192 -1.714034
-4.385654 -10.774423 -1.712597
-4.431036 -10.697467 -1.704654
-4.505946 -10.692276 -1.708201
-4.576753 -10.676756 -1.710176
-4.650387 -10.667304 -1.713200
-4.693030 -10.587306 -1.704945
-4.741602 -10.522135 -1.699103
-4.822863 -10.529495 -1.705038
-4.897945 -10.522401 -1.708724
-4.956683 -10.480026 -1.706750
-5.026699 -10.461497 -1.708723
-5.096265 -10.441663 -1.710559
-4.065781 -8.202253 -1.347759
-4.122086 -8.189178 -1.349741
-4.183249 -8.185240 -1.353297
-5.398375 -10.404796 -1.725709
-5.463857 -10.374783 -1.726260
-5.539500 -10.363675 -1.730034
-5.609785 -10.342026 -1.732134
-5.880691 -10.233938 -1.737686
-5.944084 -10.198880 -1.737893
-6.014573 -10.175786 -1.740214
-6.074840 -10.135259 -1.739625
-6.149214 -10.118031 -1.743112
-4.586611 -7.443599 -1.287191
-4.636190 -7.421707 -1.288300
-4.681692 -7.393200 -1.288314
-6.394766 -9.962664 -1.742865
-6.467299 -9.940953 -1.745976
-6.526365 -9.898339 -1.745492
-6.576991 -9.843162 -1.742846
-6.643801 -9.812277 -1.744563
-6.702822 -9.769780 -1.744287
-6.766085 -9.733422 -1.745175
-6.838180 -9.709469 -1.748370
-6.894153 -9.662459 -1.747490
-6.952335 -9.618625 -1.747244
-7.026270 -9.596337 -1.750994
-7.080515 -9.546970 -1.749881
-7.147945 -9.515304 -1.752083
-7.210136 -9.476446 -1.753041
-4.725881 -6.132875 -1.139859
-4.743988 -6.078859 -1.135209
-4.780761 -6.049083 -1.135105
-4.822759 -6.025847 -1.136276
-4.913380 -6.062447 -1.148841
-7.596990 -9.256959 -1.763006
-7.652063 -9.208265 -1.762641
-7.710676 -9.163821 -1.763157
-7.765751 -9.115154 -1.762928
-7.827075 -9.073755 -1.764177
-7.882179 -9.025073 -1.764082
-7.945221 -8.985375 -1.765818
-5.226134 -5.837740 -1.153521
-5.324499 -5.874679 -1.167254
-5.366733 -5.848751 -1.168623
-5.413021 -5.827016 -1.170895
-5.515782 -5.793407 -1.177655
-5.563491 -5.772179 -1.180257
-5.612938 -5.752418 -1.183236
-5.675863 -5.745947 -1.189047
-5.746070 -5.746070 -1.196346
-8.550236 -8.445947 -1.769356
-8.609175 -8.400426 -1.770853
-8.667599 -8.354230 -1.772293
-8.713039 -8.295502 -1.771143
-8.840025 -8.211963 -1.776336
-5.541386 -5.084699 -1.107209
-5.579620 -5.057073 -1.108628
-5.534135 -4.954338 -1.093530
-5.537850 -4.896784 -1.088306
-5.555313 -4.851814 -1.085867
-5.616964 -4.845227 -1.092086
-5.707680 -4.862718 -1.103901
-9.291694 -7.818272 -1.787760
-9.347062 -7.767403 -1.789209
-9.432208 -7.740813 -1.796382
-7.125775 -5.775167 -1.350343
-7.159996 -5.730471 -1.350140
-7.146653 -5.648202 -1.341063
-7.193713 -5.614029 -1.343404
-4.864679 -3.748632 -0.904152
-4.827498 -3.672993 -0.893036
-4.823429 -3.623385 -0.888153
-4.841967 -3.591047 -0.887493
-4.862262 -3.560063 -0.887192
-4.887781 -3.532885 -0.887876
-4.898051 -3.494754 -0.885830
-4.925932 -3.469232 -0.887006
-4.949981 -3.440927 -0.887517
-4.961356 -3.403873 -0.885795
-4.965664 -3.362205 -0.882865
-4.994955 -3.337522 -0.884415
-7.431754 -4.900048 -1.310530
-7.448113 -4.845529 -1.308147
-7.501182 -4.814806 -1.312254
-9.836508 -6.228900 -1.714077
-7.556144 -4.720170 -1.311637
-5.031679 -3.100430 -0.870107
-5.013423 -3.046898 -0.863701
-5.010382 -3.003108 -0.859987
-5.028362 -2.972100 -0.859926
-5.144936 -2.790748 -0.861699
-5.206047 -2.701080 -0.863460
-11.026386 -5.635279 -1.823035
-11.057038 -5.565645 -1.822422
-11.092250 -5.498325 -1.822631
-11.129557 -5.432005 -1.823250
-11.169900 -5.367084 -1.824430
-11.209963 -5.301918 -1.825625
-11.235211 -5.229743 -1.824477
-11.268782 -5.161482 -1.824751
-11.276012 -5.081323 -1.820839
-11.290827 -5.004879 -1.818238
-11.307433 -4.929450 -1.816007
-11.324557 -4.854443 -1.813939
-11.354027 -4.784821 -1.813922
-11.375650 -4.711948 -1.812724
-11.141055 -4.534889 -1.770873
-10.714939 -4.284992 -1.698931
-10.804819 -4.244223 -1.709021
-11.067672 -4.269272 -1.746420
-11.512917 -4.360059 -1.812422
-10.354863 -3.849011 -1.626367
-10.367237 -3.781372 -1.624635
-10.406725 -3.723586 -1.627212
-11.612896 -4.074957 -1.811867
-11.637411 -4.003533 -1.811825
-11.676840 -3.937137 -1.814169
-11.686502 -3.860699 -1.811955
-11.728119 -3.794791 -1.814763
-11.749879 -3.722344 -1.814562
