9.684740 0.416230 -1.654795
9.669652 0.356154 -1.651812
9.678981 0.297041 -1.653063
9.686491 0.237790 -1.654066
9.678542 0.178180 -1.652490
9.686640 0.118879 -1.653717
9.669761 0.059334 -1.650742
9.677970 -0.000000 -1.652113
9.676025 -0.059372 -1.651812
9.671317 -0.118691 -1.651101
9.699712 -0.178570 -1.656105
9.691015 -0.237901 -1.654838
9.684776 -0.297218 -1.654053
9.676906 -0.356422 -1.653051
9.653058 -0.414868 -1.649381
9.648149 -0.473983 -1.649008
9.655356 -0.533743 -1.650769
9.647638 -0.592716 -1.650040
9.643843 -0.651903 -1.650044
9.636193 -0.710808 -1.649450
9.627580 -0.769596 -1.648753
9.620144 -0.828437 -1.648319
9.609138 -0.886920 -1.647335
9.608037 -0.946309 -1.648111
9.597203 -1.004738 -1.647279
9.589527 -1.063458 -1.647050
9.574804 -1.121340 -1.645672
9.579379 -1.181504 -1.647674
9.570487 -1.240070 -1.647422
9.560071 -1.298413 -1.646969
9.556147 -1.357648 -1.647698
9.572707 -1.419977 -1.652024
9.529167 -1.473330 -1.646039
9.459954 -1.522120 -1.635666
9.519689 -1.591715 -1.647652
9.478756 -1.644720 -1.642284
9.499431 -1.708415 -1.647651
9.502589 -1.769243 -1.650050
9.431790 -1.816010 -1.639661
9.207640 -1.831513 -1.602617
9.250372 -1.899092 -1.612053
9.292643 -1.967268 -1.621492
9.268979 -2.021759 -1.619497
9.329604 -2.095033 -1.632305
9.295057 -2.147268 -1.628535
9.268531 -2.201132 -1.626224
9.253111 -2.257537 -1.625918
9.200056 -2.304494 -1.619050
9.272491 -2.383197 -1.634339
9.228789 -2.432429 -1.629237
9.316544 -2.516795 -1.647424
9.241900 -2.557578 -1.636969
9.377669 -2.657204 -1.663874
9.502637 -2.755714 -1.689015
9.521678 -2.824687 -1.695448
9.508195 -2.884279 -1.696167
9.125335 -2.829400 -1.630935
9.359207 -2.964983 -1.675954
9.062857 -2.932410 -1.626078
9.131027 -3.016484 -1.641599
8.765012 -2.955342 -1.579027
8.810198 -3.030907 -1.590487
8.875224 -3.114310 -1.605646
9.044945 -3.236333 -1.639912
9.136560 -3.332492 -1.660199
9.586471 -3.563391 -1.745892
9.579475 -3.627845 -1.748639
9.417331 -3.632666 -1.723078
9.534422 -3.745200 -1.748674
10.186714 -4.073750 -1.872858
10.207649 -4.154952 -1.881358
10.327090 -4.277621 -1.908174
10.381080 -4.374802 -1.923074
10.545358 -4.520427 -1.958607
10.720145 -4.673423 -1.996360
10.686050 -4.736800 -1.995385
10.550678 -4.754465 -1.975518
10.596448 -4.853530 -1.989627
10.573452 -4.921708 -1.990942
10.589617 -5.008516 -1.999735
10.528685 -5.058983 -1.994053
10.532301 -5.140502 -2.000674
10.463493 -5.186656 -1.993611
10.371522 -5.220585 -1.982154
10.399690 -5.314993 -1.993732
10.210864 -5.297756 -1.963727
10.146673 -5.343724 -1.957652
10.075431 -5.385430 -1.950245
9.903380 -5.371852 -1.923286
9.930812 -5.465860 -1.935091
9.996989 -5.582478 -1.954623
9.929762 -5.625141 -1.948191
10.049497 -5.774706 -1.978598
9.710377 -5.659376 -1.918631
9.424053 -5.570248 -1.868775
9.251159 -5.544931 -1.841203
9.161164 -5.567680 -1.830057
9.026166 -5.561760 -1.809872
8.935583 -5.581878 -1.798543
8.965617 -5.677415 -1.811566
8.697080 -5.582421 -1.764194
8.657341 -5.632218 -1.763110
8.632393 -5.691676 -1.765109
8.561306 -5.720482 -1.757717
8.542464 -5.784022 -1.761102
8.505317 -5.835303 -1.760793
8.412463 -5.847835 -1.748965
8.502454 -5.988104 -1.775280
8.434852 -6.018257 -1.768842
8.468140 -6.120765 -1.783665
8.473585 -6.204211 -1.792797
8.337152 -6.183253 -1.771925
8.352598 -6.274515 -1.783357
8.356295 -6.357871 -1.792442
8.107750 -6.247684 -1.747319
8.257062 -6.443874 -1.787985
8.166342 -6.454091 -1.776882
8.140632 -6.515318 -1.779953
8.144999 -6.601209 -1.789731
8.160639 -6.697263 -1.802164
7.962095 -6.616497 -1.767250
8.026872 -6.754018 -1.790793
8.082209 -6.885723 -1.812531
8.019178 -6.917391 -1.807880
7.994580 -6.982183 -1.811959
7.828679 -6.922425 -1.783951
7.917135 -7.087677 -1.813984
7.623647 -6.909671 -1.756421
7.583800 -6.958790 -1.757045
7.487243 -6.955293 -1.744529
7.444703 -7.001364 -1.744594
7.547193 -7.185525 -1.778910
7.432416 -7.163703 -1.762185
7.581380 -7.397551 -1.808231
7.483859 -7.392578 -1.795757
7.405287 -7.405287 -1.787773
7.392774 -7.484059 -1.795805
7.368419 -7.551524 -1.801110
7.346901 -7.622485 -1.807249
7.373669 -7.744807 -1.825489
7.247434 -7.706355 -1.805910
7.113859 -7.657936 -1.784301
7.069580 -7.704541 -1.785019
7.017894 -7.743053 -1.783931
6.986495 -7.804112 -1.788088
6.870463 -7.769914 -1.770560
6.847452 -7.840313 -1.776994
6.812132 -7.897154 -1.780370
6.777033 -7.954633 -1.783920
6.674979 -7.932937 -1.769836
6.531536 -7.859856 -1.744558
6.610898 -8.055402 -1.778923
6.618387 -8.166195 -1.794388
6.517960 -8.143933 -1.780675
6.413025 -8.114382 -1.765577
6.395928 -8.195624 -1.774681
6.335518 -8.221735 -1.771884
6.334813 -8.325989 -1.785941
6.301753 -8.388858 -1.791099
6.312111 -8.510896 -1.808851
6.166564 -8.422168 -1.781918
6.050098 -8.370371 -1.763072
6.042446 -8.468754 -1.775952
6.030154 -8.562161 -1.787747
5.942785 -8.549055 -1.777363
5.711724 -8.325194 -1.723503
5.748629 -8.490190 -1.750326
4.427787 -6.626652 -1.360514
4.489176 -6.808597 -1.392188
3.778629 -5.808170 -1.182862
3.737689 -5.823097 -1.181209
5.599315 -8.842285 -1.786646
5.485427 -8.781182 -1.767465
4.164145 -6.947457 -1.382711
4.187820 -7.085185 -1.404981
4.445546 -7.736410 -1.523185
4.046028 -7.142239 -1.401287
3.969594 -7.108670 -1.389896
3.894184 -7.075266 -1.378667
3.377275 -6.226239 -1.209167
3.371306 -6.307270 -1.220863
3.700060 -7.025682 -1.355502
3.562420 -6.866188 -1.320488
3.347675 -6.550297 -1.255762
3.408033 -6.770598 -1.293963
3.387185 -6.833264 -1.301943
3.260514 -6.680421 -1.268986
3.223731 -6.709184 -1.270668
3.358612 -7.101187 -1.340982
3.255266 -6.993384 -1.316828
3.247673 -7.090469 -1.331331
3.236239 -7.181570 -1.344683
3.110596 -7.017392 -1.310344
3.019484 -6.926252 -1.289842
2.871272 -6.698170 -1.244063
2.810351 -6.668754 -1.235373
2.760886 -6.665369 -1.231585
2.801246 -6.881941 -1.268402
2.834129 -7.086950 -1.302957
2.795554 -7.116841 -1.305274
2.708094 -7.020469 -1.284527
2.743183 -7.243488 -1.322228
2.734917 -7.357654 -1.339979
2.599147 -7.125978 -1.294857
2.553533 -7.136646 -1.293924
2.547528 -7.259996 -1.313430
2.413745 -7.016240 -1.266628
2.349227 -6.967385 -1.255182
2.330600 -7.054827 -1.268335
2.369120 -7.321963 -1.313723
2.295536 -7.246044 -1.297550
2.167088 -6.989257 -1.249162
2.106987 -6.945806 -1.239062
2.207906 -7.442584 -1.325241
2.166040 -7.469242 -1.327596
2.081415 -7.345625 -1.303330
2.025681 -7.319869 -1.296530
2.051154 -7.592857 -1.342628
1.996110 -7.573370 -1.336991
1.903367 -7.405580 -1.305284
1.810021 -7.226009 -1.271652
1.772120 -7.263501 -1.276312
1.706609 -7.186194 -1.260864
1.639947 -7.098974 -1.243772
1.664051 -7.410354 -1.296514
1.535101 -7.037843 -1.229668
1.673963 -7.907182 -1.379740
1.450150 -7.063600 -1.230966
1.487562 -7.478481 -1.301652
1.458443 -7.574700 -1.316817
1.413824 -7.861395 -1.363538
1.249613 -7.201696 -1.247761
1.211548 -7.245994 -1.254125
1.290750 -8.021996 -1.387037
1.460607 -9.446875 -1.631824
1.167618 -7.871438 -1.358425
1.113763 -7.839498 -1.351708
1.053238 -7.754875 -1.335978
1.352563 -10.438677 -1.796868
1.258701 -10.205275 -1.755329
1.184636 -10.115271 -1.738565
1.098886 -9.908984 -1.701919
1.043600 -9.968419 -1.710995
0.981662 -9.966986 -1.709683
0.746774 -8.090758 -1.387033
0.705739 -8.195320 -1.404189
0.777145 -9.722020 -1.664926
0.754328 -10.226176 -1.750439
0.708131 -10.475646 -1.792364
0.504187 -8.206650 -1.403587
0.550511 -9.958688 -1.702629
0.493354 -10.042458 -1.716401
0.423330 -9.849943 -1.683022
0.347519 -9.435202 -1.611762
0.305864 -9.966480 -1.702165
0.250763 -10.214952 -1.744306
0.183319 -9.957645 -1.700144
0.123135 -10.033452 -1.712926
0.062200 -10.136866 -1.730483
0.000000 -10.096007 -1.723475
-0.061790 -10.070025 -1.719072
-0.125805 -10.251007 -1.750067
-0.186401 -10.125069 -1.728729
-0.244419 -9.956508 -1.700174
-0.312274 -10.175358 -1.737839
-0.374349 -10.163636 -1.736197
-0.428828 -9.977882 -1.704883
-0.491896 -10.012770 -1.711327
-0.549423 -9.939003 -1.699264
-0.632267 -10.291415 -1.760145
-0.698156 -10.328086 -1.767117
-0.702097 -9.518094 -1.629235
-0.811549 -10.152409 -1.738632
-0.897772 -10.425285 -1.786272
-0.960692 -10.408410 -1.784358
-1.021800 -10.374507 -1.779587
-1.077010 -10.287544 -1.765770
-1.142506 -10.302320 -1.769476
-1.233768 -10.534797 -1.810671
-1.297421 -10.519209 -1.809326
-1.347418 -10.398968 -1.790033
-1.404033 -10.337736 -1.780942
-1.446993 -10.185022 -1.756130
-1.518155 -10.234568 -1.766246
-1.599767 -10.346933 -1.787298
-1.666164 -10.355188 -1.790456
-1.739732 -10.404945 -1.800871
-1.781902 -10.269354 -1.779262
-1.848033 -10.275757 -1.782302
-1.873497 -10.062532 -1.747280
-1.940469 -10.078192 -1.752034
-1.981797 -9.963166 -1.734119
-2.081359 -10.138186 -1.766771
-2.111397 -9.973459 -1.740289
-2.172023 -9.957881 -1.739864
-2.224968 -9.908233 -1.733542
-2.229743 -9.652074 -1.691086
-2.326288 -9.795537 -1.718690
-2.451219 -10.046968 -1.765411
-2.453149 -9.793519 -1.723489
-2.485557 -9.670751 -1.704536
-2.564401 -9.729500 -1.717632
-2.613379 -9.674074 -1.710645
-2.662228 -9.620057 -1.703950
-2.744728 -9.686553 -1.718679
-2.827253 -9.749329 -1.732863
-2.894965 -9.758579 -1.737631
-2.952948 -9.734566 -1.736549
-3.020720 -9.742378 -1.741217
-3.077517 -9.714430 -1.739564
-3.200958 -9.892828 -1.774993
-3.252158 -9.844423 -1.769855
-3.323163 -9.855904 -1.775552
-3.386296 -9.843236 -1.776980
-3.502724 -9.982133 -1.805901
-3.449028 -9.639387 -1.747689
-3.491671 -9.572975 -1.739500
-3.532507 -9.503384 -1.730760
-3.607099 -9.524696 -1.738640
-3.691650 -9.570243 -1.751056
-3.560804 -9.064991 -1.662577
-3.637270 -9.095262 -1.672191
-3.872156 -9.512891 -1.753308
-3.846717 -9.286797 -1.715956
-3.902829 -9.261125 -1.715605
-3.994113 -9.317559 -1.730566
-4.062005 -9.317642 -1.735178
-4.037719 -9.108947 -1.700896
-4.075711 -9.044449 -1.693490
-4.114544 -8.983060 -1.686691
-4.164515 -8.946750 -1.684640
-4.144755 -8.763349 -1.654864
-4.221173 -8.785046 -1.663821
-4.346837 -8.906172 -1.691781
-4.405870 -8.888345 -1.693498
-4.430956 -8.802798 -1.682347
-4.541310 -8.885849 -1.703513
-4.553358 -8.776115 -1.687800
-4.547409 -8.634629 -1.665925
-4.603682 -8.612882 -1.667148
-4.676350 -8.621173 -1.674275
-4.856610 -8.823877 -1.719396
-4.939582 -8.845704 -1.729523
-5.006411 -8.837551 -1.733903
-5.012469 -8.723005 -1.717431
-5.036899 -8.642328 -1.707600
-4.928377 -8.338100 -1.653432
-4.978413 -8.305981 -1.653090
-5.087474 -8.371024 -1.672216
-5.182601 -8.410829 -1.686489
-5.241122 -8.390093 -1.688747
-5.395877 -8.521022 -1.721732
-5.416300 -8.438273 -1.711695
-5.549339 -8.529947 -1.737166
-5.478144 -8.308535 -1.698888
-5.603390 -8.386066 -1.721739
-5.607114 -8.281187 -1.707238
-5.799888 -8.453698 -1.750106
-5.836793 -8.396579 -1.745663
-5.978990 -8.489513 -1.772578
-5.999975 -8.409229 -1.763469
-4.752857 -6.491356 -1.373407
-6.129873 -8.265177 -1.756628
-6.077731 -8.090641 -1.727427
-6.235054 -8.194873 -1.757817
-6.043156 -7.842331 -1.690118
-6.153038 -7.884389 -1.707286
-5.001692 -6.328626 -1.377021
-6.153345 -7.688361 -1.681064
-6.185297 -7.631821 -1.676968
-5.704392 -6.950821 -1.534992
-6.425949 -7.732796 -1.716355
-5.133849 -6.101368 -1.361214
-6.491155 -7.619080 -1.708668
-6.199266 -7.186672 -1.620196
-6.681338 -7.650113 -1.733886
-6.699214 -7.576247 -1.726429
-6.806149 -7.602661 -1.741931
-6.651421 -7.338712 -1.690774
-6.716592 -7.319848 -1.695892
-6.215187 -6.690533 -1.558896
-6.281982 -6.679768 -1.565339
-6.380942 -6.702113 -1.579721
-6.912013 -7.171285 -1.700272
-6.947378 -7.120020 -1.698192
-6.719565 -6.802536 -1.632273
-6.838861 -6.838861 -1.651027
-6.837124 -6.753731 -1.640572
-7.039701 -6.869006 -1.679035
-6.451425 -6.218179 -1.529597
-6.463847 -6.154093 -1.523560
-7.324497 -6.888316 -1.716425
-6.720878 -6.243376 -1.565966
-7.313954 -6.711183 -1.694526
-7.036570 -6.377576 -1.621164
-7.077928 -6.336391 -1.621704
-7.279508 -6.436826 -1.658809
-7.265313 -6.345267 -1.646672
-7.150609 -6.168157 -1.612066
-7.054780 -6.010394 -1.582117
-7.192741 -6.052158 -1.604698
-7.079425 -5.882998 -1.571335
-7.503879 -6.158275 -1.657127
-7.628721 -6.182785 -1.676287
-7.660510 -6.131054 -1.674975
-7.617742 -6.020517 -1.657515
-7.390103 -5.767293 -1.600254
-7.430542 -5.725839 -1.601372
-7.510811 -5.714587 -1.611084
-7.824129 -5.877525 -1.670524
-7.895180 -5.855465 -1.677991
-7.990988 -5.850862 -1.690692
-8.214429 -5.937383 -1.730225
-8.212141 -5.859353 -1.722138
-8.289625 -5.838213 -1.730842
-8.438707 -5.866078 -1.754421
-8.971275 -6.154986 -1.857256
-8.606256 -5.827215 -1.774253
-8.517517 -5.691223 -1.748727
-8.564938 -5.647201 -1.751316
-8.733292 -5.681629 -1.778578
-9.154830 -5.876239 -1.857048
-8.659233 -5.483399 -1.749659
-8.801463 -5.498096 -1.771547
-9.059730 -5.582442 -1.816602
-9.066788 -5.510323 -1.811204
-8.971984 -5.377601 -1.785640
-9.312151 -5.504106 -1.846585
-9.177333 -5.348709 -1.813309
-9.363613 -5.380579 -1.843557
-9.749805 -5.523197 -1.912884
-9.712838 -5.423804 -1.899066
-9.790802 -5.388799 -1.907809
-9.778367 -5.304042 -1.899008
-9.799252 -5.237810 -1.896787
-10.308910 -5.429165 -1.988953
-10.408232 -5.400157 -2.001685
-10.518229 -5.375574 -2.016458
-10.458403 -5.264317 -1.998758
-10.460233 -5.185040 -1.992990
-12.260098 -5.983789 -2.328879
-10.530331 -5.059774 -1.994364
-12.694225 -6.003921 -2.397167
-12.613299 -5.871212 -2.375037
-12.675689 -5.805893 -2.380032
-12.743265 -5.742513 -2.386060
-12.803606 -5.675448 -2.390792
-12.755094 -5.560555 -2.375318
-12.879977 -5.521197 -2.392220
-12.938169 -5.452412 -2.396769
-13.117339 -5.433380 -2.423739
-13.096138 -5.330692 -2.413732
-13.120790 -5.247111 -2.412296
-13.018709 -5.113857 -2.387714
-12.973016 -5.004245 -2.373658
-12.718852 -4.816759 -2.321702
-10.490768 -3.899528 -1.910583
-12.455235 -4.542954 -2.263234
-10.788111 -3.860048 -1.955961
-10.443500 -3.664617 -1.889368
-10.301719 -3.544024 -1.859749
-10.226132 -3.447995 -1.842249
-10.573987 -3.493173 -1.901018
-10.341033 -3.345981 -1.855411
-10.239144 -3.243746 -1.833524
-10.412904 -3.228623 -1.861057
-10.168495 -3.084579 -1.813958
-10.179779 -3.019918 -1.812631
-10.278874 -2.980818 -1.826985
-10.287818 -2.915099 -1.825361
-10.176340 -2.816173 -1.802482
-10.204720 -2.756729 -1.804478
-10.290287 -2.712208 -1.816632
-10.199761 -2.621522 -1.797777
-10.152456 -2.543058 -1.786655
-10.260315 -2.503270 -1.802900
-10.252263 -2.434753 -1.798826
-10.155512 -2.346043 -1.779291
-9.977484 -2.240519 -1.745658
-10.058383 -2.193944 -1.757424
-10.056642 -2.129008 -1.754804
-10.072907 -2.067957 -1.755395
-10.038930 -1.996867 -1.747306
-10.301166 -1.983401 -1.790797
-10.601523 -1.973849 -1.840872
-10.663541 -1.917773 -1.849563
-10.652339 -1.848356 -1.845618
-10.642366 -1.779430 -1.841963
-10.644727 -1.712751 -1.840518
-10.662899 -1.648620 -1.841877
-10.685004 -1.584971 -1.843980
-10.695602 -1.519531 -1.844165
-10.705220 -1.453943 -1.844251
-10.706222 -1.387230 -1.842922
-10.715995 -1.321692 -1.843174
-10.723982 -1.255924 -1.843188
-10.733758 -1.190351 -1.843578
-10.735162 -1.123871 -1.842600
-10.772842 -1.061032 -1.847915
-10.769961 -0.994063 -1.846340
-10.786998 -0.928921 -1.848249
-10.794658 -0.862888 -1.848619
-10.792141 -0.796076 -1.847317
-10.798280 -0.729940 -1.847566
-10.783446 -0.662496 -1.844298
-10.769451 -0.595330 -1.841245
-10.782783 -0.529724 -1.842934
-10.781903 -0.463384 -1.842263
-10.788158 -0.397351 -1.842880
-10.752745 -0.329994 -1.836450
-10.776913 -0.264558 -1.840266
-10.777626 -0.198414 -1.840145
-10.773117 -0.132213 -1.839202
-10.767262 -0.066068 -1.838099
-10.227283 0.000000 -1.826361
-10.231168 0.062778 -1.827089
-10.228396 0.125528 -1.826697
-10.219792 0.188145 -1.825333
-10.210297 0.250649 -1.823877
-10.206534 0.313231 -1.823514
-10.206456 0.375926 -1.823878
-10.205830 0.438625 -1.824212
-10.204686 0.501324 -1.824523
-10.195972 0.563628 -1.823549
-10.182186 0.625556 -1.821736
-10.172431 0.687634 -1.820711
-10.169613 0.750156 -1.820997
-10.176853 0.813503 -1.823152
-10.155651 0.874552 -1.820281
-10.148942 0.936743 -1.820075
-10.146416 0.999335 -1.820687
-10.122274 1.059708 -1.817488
-10.118256 1.122094 -1.817968
-10.098662 1.182691 -1.815717
-10.091996 1.244729 -1.815858
-10.085444 1.306794 -1.816088
-10.065939 1.367118 -1.814052
-10.059020 1.429092 -1.814351
-10.055794 1.491636 -1.815386
-10.048150 1.553572 -1.815693
-10.029404 1.613745 -1.814060
-10.018752 1.675160 -1.813959
-9.906113 1.718874 -1.795440
-9.969244 1.792908 -1.808843
-9.953712 1.853236 -1.808054
-9.950085 1.915803 -1.809496
-9.962625 1.981689 -1.813954
-9.937602 2.040179 -1.811643
-9.924510 2.101035 -1.811572
-9.903450 2.160150 -1.810113
-9.893911 2.221752 -1.810828
-9.866432 2.279262 -1.808324
-9.862155 2.342108 -1.810140
-9.837773 2.400180 -1.808334
-9.817244 2.459092 -1.807300
-9.799864 2.518741 -1.806911
-9.781187 2.578024 -1.806350
-9.763279 2.637477 -1.805998
-9.769413 2.703561 -1.810167
-9.743428 2.760844 -1.808457
-9.731937 2.822209 -1.809505
-9.708356 2.880066 -1.808372
-9.693039 2.940351 -1.808845
-9.672537 2.999065 -1.808419
-9.623330 3.048657 -1.802683
-9.592073 3.103645 -1.800361
-9.574904 3.163121 -1.800748
-9.552572 3.220887 -1.800231
-9.534633 3.280129 -1.800609
-9.504043 3.334962 -1.798663
-9.469791 3.388345 -1.796082
-9.460279 3.450566 -1.798260
-9.433048 3.506362 -1.797139
-9.409500 3.563473 -1.796785
-9.378530 3.617698 -1.795076
-9.352678 3.673810 -1.794409
-9.329349 3.730883 -1.794291
-9.298900 3.785052 -1.792868
-9.270538 3.839983 -1.791909
-9.246285 3.896575 -1.791809
-9.224228 3.954105 -1.792202
-9.194539 4.008339 -1.791179
-9.159045 4.059925 -1.789084
-9.141277 4.119344 -1.790517
-9.113771 4.174414 -1.790112
-9.078795 4.225978 -1.788302
-9.076164 4.292706 -1.792939
-9.042427 4.344843 -1.791507
-8.993015 4.389223 -1.787019
-8.988742 4.455636 -1.791569
-8.951801 4.505958 -1.789683
-8.922270 4.559924 -1.789340
-8.885746 4.610238 -1.787654
-8.848588 4.660090 -1.785898
-8.821689 4.715291 -1.786275
-8.788642 4.767189 -1.785473
-8.738540 4.809640 -1.781256
-8.705565 4.861326 -1.780581
-8.695031 4.925674 -1.784575
-8.638328 4.963812 -1.779155
-8.601095 5.012868 -1.777788
-8.569007 5.064858 -1.777546
-8.528600 5.111846 -1.775637
-8.499031 5.165270 -1.776046
-8.460386 5.213137 -1.774621
-8.428325 5.265004 -1.774640
-8.397370 5.317576 -1.774958
-8.386148 5.382843 -1.779534
-8.329945 5.419223 -1.774631
-8.258717 5.445297 -1.766541
-8.216745 5.490253 -1.764736
-8.149345 5.517846 -1.757499
-8.165239 5.601983 -1.768307
-8.268104 5.747485 -1.798187
-8.227546 5.794491 -1.797065
-8.211539 5.858923 -1.801387
-8.186271 5.917031 -1.803775
-8.164510 5.977912 -1.807028
-8.140317 6.037271 -1.809839
-8.111209 6.093182 -1.811646
-7.999729 6.086579 -1.795054
-7.932892 6.112941 -1.788439
-7.907321 6.170934 -1.791177
-7.915553 6.255885 -1.801704
-7.850909 6.283439 -1.795732
-7.776979 6.302943 -1.787634
-7.805337 6.405675 -1.803153
-7.749206 6.439586 -1.799280
-7.741301 6.513731 -1.806691
-7.664743 6.530059 -1.798141
-7.621847 6.574651 -1.797508
-7.610888 6.647081 -1.804509
-7.654471 6.768384 -1.824655
-7.599146 6.803003 -1.821383
-7.558785 6.850883 -1.821750
-7.412587 6.801687 -1.796539
-7.412012 6.885407 -1.806606
-7.271958 6.838906 -1.782664
-8.181127 7.789080 -2.017217
-6.921379 6.671142 -1.716663
-8.102052 7.905599 -2.021490
-8.054699 7.956455 -2.021819
-8.012684 8.012684 -2.023575
-7.964667 8.063013 -2.023905
-7.913396 8.110043 -2.023484
-7.865203 8.160229 -2.023926
-7.824723 8.218563 -2.026448
-7.775095 8.267428 -2.026695
-7.732339 8.323719 -2.028825
-7.683566 8.373672 -2.029471
-7.636156 8.425200 -2.030565
-7.588387 8.476443 -2.031655
-7.546594 8.534562 -2.034448
-7.500624 8.588194 -2.036224
-7.455706 8.643235 -2.038389
-7.404812 8.691496 -2.039017
-7.347491 8.732190 -2.037948
-7.278781 8.759069 -2.033760
-7.205897 8.780411 -2.028410
-7.152199 8.824846 -2.028499
-7.071853 8.836001 -2.021051
-7.000667 8.857923 -2.016202
-6.904580 8.847401 -2.004126
-6.862506 8.905618 -2.007737
-6.780340 8.911554 -1.999658
-6.702761 8.922677 -1.992888
-6.658730 8.978258 -1.996139
-6.594234 9.006271 -1.993333
-6.483765 8.970354 -1.976541
-6.445464 9.033601 -1.981725
-6.351327 9.018191 -1.969758
-6.282407 9.037622 -1.965546
-6.174280 8.999397 -1.948956
-6.139987 9.068190 -1.955658
-6.044823 9.046716 -1.942992
-5.974196 9.060881 -1.938124
-5.927238 9.110820 -1.940990
-5.897855 9.188507 -1.949794
-5.905227 9.325372 -1.971111
-5.840732 9.349961 -1.968696
-5.776857 9.375245 -1.966519
-5.734946 9.436387 -1.971926
-5.694832 9.501253 -1.978142
-5.606467 9.485331 -1.967627
-5.540201 9.505896 -1.964804
-5.465246 9.510955 -1.958882
-5.308965 9.371633 -1.923441
-5.300859 9.492672 -1.941571
-5.223506 9.490484 -1.934532
-5.358801 9.879319 -2.007051
-5.339886 9.990224 -2.022888
-5.207761 9.888507 -1.995783
-4.956590 9.553303 -1.921955
-5.077017 9.934049 -1.992250
-4.660282 9.258389 -1.850978
-4.609677 9.299503 -1.853508
-4.536715 9.295209 -1.847069
-4.512164 9.390654 -1.860498
-4.461957 9.434016 -1.863630
-4.459754 9.581021 -1.887228
-4.439192 9.691846 -1.903657
-4.378922 9.717308 -1.903345
-4.320877 9.747743 -1.904077
-4.249943 9.748744 -1.899143
-4.183861 9.760210 -1.896340
-4.104539 9.739767 -1.887439
-4.047189 9.770780 -1.888601
-3.948525 9.700511 -1.870300
-3.924867 9.814419 -1.887584
-3.859279 9.824841 -1.884998
-3.809546 9.875876 -1.890269
-3.755340 9.916131 -1.893528
-3.702643 9.961096 -1.897740
-3.712330 10.177947 -1.934678
-3.683635 10.295071 -1.952608
-3.575299 10.188960 -1.928285
-3.501076 10.176877 -1.921897
-3.444360 10.215353 -1.925135
-3.418095 10.346722 -1.945903
-3.319956 10.260603 -1.925840
-3.284311 10.367192 -1.942027
-3.248531 10.477110 -1.958846
-3.130051 10.318395 -1.925545
-3.129280 10.548425 -1.964851
-3.034904 10.465379 -1.945877
-2.924500 10.320995 -1.915658
-2.766579 9.997131 -1.852361
-2.771821 10.260587 -1.897989
-2.786226 10.571119 -1.952232
-2.712331 10.553079 -1.945790
-2.591138 10.344403 -1.904347
-2.550445 10.453671 -1.921545
-2.549152 10.733973 -1.970157
-2.440751 10.565481 -1.936446
-2.330017 10.376035 -1.899068
-2.303250 10.559508 -1.930025
-2.316287 10.941282 -1.997169
-2.183744 10.636896 -1.939125
-2.140830 10.762680 -1.959624
-1.967120 10.216611 -1.857966
-1.932943 10.381818 -1.885817
-1.853386 10.305524 -1.869858
-1.807980 10.419647 -1.888516
-1.746028 10.442599 -1.890699
-1.640606 10.196344 -1.844255
-1.559711 10.087858 -1.822868
-1.909035 12.869670 -2.323379
-1.496184 10.531264 -1.899530
-1.439463 10.598601 -1.910046
-1.351085 10.427266 -1.877639
-1.271233 10.306883 -1.854523
-1.193222 10.188583 -1.831885
-1.111428 10.022083 -1.800689
-1.110606 10.608448 -1.904782
-1.066521 10.828574 -1.943094
-0.999114 10.824677 -1.941259
-0.945194 10.975974 -1.967315
-0.860576 10.765725 -1.928647
-0.791878 10.735226 -1.922277
-0.725745 10.736217 -1.921621
-0.704020 11.459341 -2.050237
-0.598717 10.830730 -1.937076
-0.532439 10.838052 -1.937765
-0.441167 10.264966 -1.834782
-0.453457 12.311444 -2.200036
-0.322223 10.499528 -1.875860
-0.258512 10.530630 -1.881098
-0.192602 10.461892 -1.868573
-0.127944 10.425258 -1.861855
-0.063805 10.398439 -1.856961
0.000000 10.333405 -1.845312
0.063584 10.362514 -1.850545
0.128136 10.440939 -1.864656
0.191865 10.421874 -1.861426
0.256687 10.456269 -1.867815
0.406303 13.239255 -2.365344
0.487509 13.235940 -2.365242
0.445747 10.371531 -1.853830
0.515355 10.490297 -1.875589
0.571994 10.347301 -1.850615
0.628704 10.233414 -1.830901
0.875253 12.947944 -2.317486
0.950915 12.891246 -2.308339
1.041446 13.028396 -2.333998
1.124428 13.057308 -2.340369
0.915030 9.913691 -1.777886
0.990320 10.054892 -1.804264
1.080647 10.322283 -1.853400
1.369388 12.348184 -2.218624
1.430269 12.212659 -2.195809
1.467332 11.896811 -2.140599
1.338974 10.333798 -1.860809
1.397811 10.291926 -1.854778
1.446846 10.183990 -1.836892
1.507898 10.165422 -1.835177
1.550406 10.027676 -1.811993
1.606606 9.985035 -1.806035
1.680419 10.050206 -1.819654
1.734334 9.995214 -1.811590
1.800477 10.011331 -1.816479
1.870954 10.048879 -1.825340
1.941843 10.085329 -1.834091
2.032806 10.219604 -1.860743
2.090393 10.182192 -1.856232
2.150846 10.159798 -1.854521
2.211391 10.138368 -1.853051
2.276154 10.136172 -1.855167
2.344044 10.146856 -1.859720
2.408041 10.139783 -1.861097
2.441291 10.006275 -1.839307
2.486963 9.928512 -1.827784
2.558928 9.956221 -1.835741
2.587505 9.817157 -1.812993
2.650665 9.812097 -1.815028
2.722880 9.839224 -1.823102
2.782803 9.820927 -1.822842
2.813947 9.703446 -1.804207
2.901418 9.780328 -1.821778
2.972825 9.800090 -1.828822
3.022998 9.749724 -1.822851
3.106008 9.804364 -1.836595
3.175756 9.814939 -1.842192
3.212440 9.724195 -1.828825
3.221591 9.554661 -1.800625
3.276439 9.523907 -1.798584
3.315098 9.447433 -1.787949
3.364320 9.402643 -1.783346
3.470581 9.515155 -1.808691
3.572304 9.610449 -1.830937
3.620647 9.560469 -1.825613
3.670823 9.516250 -1.821436
3.750152 9.547027 -1.831697
3.787318 9.470468 -1.821432
3.847443 9.452179 -1.822421
3.921272 9.466789 -1.829842
3.981600 9.448041 -1.830907
4.023287 9.385619 -1.823560
4.098067 9.400362 -1.831275
4.173924 9.416222 -1.839319
4.229379 9.385456 -1.838345
4.270144 9.322773 -1.831164
4.341592 9.327171 -1.837226
4.407266 9.318382 -1.840787
4.477212 9.317912 -1.846087
4.536015 9.293775 -1.846784
4.602242 9.284504 -1.850518
4.667375 9.272482 -1.853795
4.742990 9.280469 -1.861176
4.800936 9.253297 -1.861599
4.874522 9.255753 -1.868075
4.929532 9.222506 -1.867435
4.995757 9.210022 -1.871079
5.049231 9.173846 -1.869989
5.108135 9.147545 -1.870981
5.171214 9.128470 -1.873534
5.244454 9.126720 -1.879744
5.308449 9.108255 -1.882615
5.376438 9.096154 -1.886897
5.426853 9.054157 -1.885057
5.489157 9.031960 -1.887413
5.562280 9.027010 -1.893475
5.633982 9.018992 -1.899008
5.686511 8.979983 -1.898106
5.744574 8.949703 -1.899120
5.801567 8.917649 -1.899837
5.856141 8.881831 -1.899826
5.886109 8.809185 -1.891976
5.936968 8.768351 -1.890995
5.982101 8.719285 -1.888294
6.031945 8.677316 -1.887185
6.089285 8.646120 -1.888490
6.131170 8.593104 -1.885092
6.168346 8.533968 -1.880387
6.225846 8.503134 -1.881975
6.275415 8.461418 -1.881229
6.328130 8.423971 -1.881501
6.371114 8.373700 -1.878969
6.417099 8.327604 -1.877426
6.464117 8.283000 -1.876277
6.510887 8.238207 -1.875145
6.560229 8.196747 -1.874835
6.606404 8.151410 -1.873701
6.650077 8.103143 -1.871951
6.696352 8.058191 -1.871023
6.740525 8.010837 -1.869596
6.788469 7.968056 -1.869298
6.825496 7.912647 -1.866089
6.864916 7.860310 -1.863646
6.866175 7.765065 -1.851018
6.789804 7.584403 -1.817849
6.897049 7.609720 -1.834026
6.519137 7.104659 -1.721909
6.449021 6.942251 -1.692106
6.514270 6.926765 -1.698042
6.704425 7.041877 -1.736313
6.720222 6.972300 -1.729292
6.746200 6.913842 -1.725028
6.820525 6.904743 -1.733167
6.832204 6.832204 -1.725449
6.876574 6.792700 -1.726096
6.942037 6.773711 -1.732063
6.977834 6.725556 -1.730665
7.040549 6.703160 -1.735986
7.016928 6.599063 -1.720145
7.138005 6.630867 -1.739819
7.168454 6.577674 -1.737371
7.191406 6.517910 -1.733208
7.055139 6.315989 -1.690994
6.924271 6.122712 -1.650591
7.005953 6.118751 -1.661081
7.125874 6.146821 -1.680540
7.185483 6.121748 -1.685707
7.235294 6.087963 -1.688597
7.284476 6.053396 -1.691375
7.314963 6.003235 -1.689869
7.382550 5.983273 -1.696970
7.340667 5.875069 -1.679024
7.269771 5.745505 -1.654713
7.238057 5.648635 -1.639575
7.260226 5.594597 -1.636790
7.317980 5.567872 -1.642077
7.366226 5.533547 -1.645253
7.417827 5.501436 -1.649208
7.465593 5.466177 -1.652339
7.481499 5.407622 -1.648485
7.512589 5.360224 -1.648057
7.540685 5.310750 -1.647041
7.574410 5.265271 -1.647319
7.613275 5.223294 -1.648770
7.643767 5.175523 -1.648465
7.671786 5.126124 -1.647694
7.703390 5.079148 -1.647757
7.734656 5.031946 -1.647809
7.768060 4.986109 -1.648377
7.797096 4.937456 -1.648078
7.827654 4.889777 -1.648164
7.892548 4.863245 -1.655514
7.910018 4.807298 -1.652960
7.924358 4.749677 -1.649835
7.982244 4.718042 -1.655828
8.007479 4.666898 -1.655092
8.020665 4.608886 -1.651941
8.074868 4.574356 -1.657292
8.094045 4.519844 -1.655505
8.133552 4.476659 -1.657936
8.159149 4.425736 -1.657587
8.177561 4.370998 -1.655848
8.188137 4.312265 -1.652600
8.213024 4.261206 -1.652315
8.252629 4.217689 -1.655045
8.279090 4.167344 -1.655192
8.311209 4.119789 -1.656529
8.330556 4.065896 -1.655381
8.351966 4.013080 -1.654711
8.380343 3.963607 -1.655483
8.405816 3.912722 -1.655742
8.430416 3.861414 -1.655889
8.461242 3.812899 -1.657317
8.480785 3.759273 -1.656596
8.499997 3.705555 -1.655876
8.531477 3.657147 -1.657606
8.552035 3.604004 -1.657272
8.579475 3.553735 -1.658333
8.606069 3.503040 -1.659287
8.623612 3.448653 -1.658559
8.658021 3.400942 -1.661131
8.667502 3.343425 -1.658983
8.708150 3.297865 -1.662859
8.733619 3.246377 -1.663887
8.757615 3.194274 -1.664693
8.784135 3.143014 -1.666037
8.790117 3.084446 -1.663551
8.816531 3.033086 -1.664996
8.838473 2.980111 -1.665655
8.864372 2.928393 -1.667119
8.861315 2.867198 -1.663203
8.903138 2.820501 -1.667774
8.890354 2.756542 -1.662179
8.912410 2.703550 -1.663170
8.917330 2.645402 -1.661028
8.945362 2.594107 -1.663253
8.951258 2.536379 -1.661424
8.972854 2.483123 -1.662573
8.985334 2.427321 -1.662095
9.012064 2.375307 -1.664312
9.020801 2.318508 -1.663267
9.038086 2.263923 -1.663861
9.053964 2.208950 -1.664258
9.063599 2.152464 -1.663570
9.072809 2.095926 -1.662868
9.041022 2.030229 -1.654728
9.055063 1.975099 -1.655049
9.080962 1.922454 -1.657595
9.113927 1.871080 -1.661485
9.109445 1.811981 -1.658610
9.108821 1.753825 -1.656506
9.131247 1.700105 -1.658656
9.141332 1.644013 -1.658624
9.143397 1.586530 -1.657202
9.154531 1.530660 -1.657486
9.169885 1.475447 -1.658596
9.175099 1.418587 -1.657933
9.191054 1.363364 -1.659273
9.219339 1.309798 -1.662897
9.195993 1.248966 -1.657273
9.197255 1.191709 -1.656151
9.198425 1.134517 -1.655077
9.209550 1.078564 -1.655857
9.225946 1.023138 -1.657645
9.223523 0.965617 -1.656114
9.231547 0.909228 -1.656522
9.234777 0.852366 -1.656132
9.238222 0.795548 -1.655843
9.243126 0.738864 -1.655878
9.247166 0.682112 -1.655821
9.251287 0.625367 -1.655841
9.246688 0.568083 -1.654362
9.240399 0.510805 -1.652645
9.251375 0.454491 -1.654078
9.272026 0.398492 -1.657302
9.248172 0.340630 -1.652634
9.289188 0.285078 -1.659619
9.257604 0.227261 -1.653696
9.271020 0.170678 -1.655875
9.256165 0.113596 -1.653066
9.282427 0.056957 -1.657662
9.285655 -0.000000 -1.658208
9.261954 -0.056831 -1.654006
9.239792 -0.113395 -1.650142
9.250927 -0.170308 -1.652286
9.251844 -0.227120 -1.652668
9.243956 -0.283690 -1.651538
9.242258 -0.340413 -1.651577
9.234257 -0.396869 -1.650551
9.234058 -0.453640 -1.650982
9.220676 -0.509715 -1.649118
9.225687 -0.566793 -1.650605
9.225863 -0.623648 -1.651290
9.208424 -0.679254 -1.648884
9.203795 -0.735720 -1.648832
9.201314 -0.792370 -1.649227
9.194267 -0.848627 -1.648867
9.186594 -0.904801 -1.648455
9.182510 -0.961323 -1.648750
9.172856 -1.017251 -1.648106
9.164588 -1.073298 -1.647773
9.161811 -1.130002 -1.648489
9.146844 -1.185178 -1.647074
9.149399 -1.242637 -1.648876
9.140878 -1.298651 -1.648745
9.121728 -1.353081 -1.646758
8.988159 -1.389684 -1.624153
9.088833 -1.462406 -1.643935
9.071515 -1.516779 -1.642455
9.054251 -1.571062 -1.641044
9.067804 -1.630790 -1.645283
9.068956 -1.688507 -1.647341
9.058450 -1.744126 -1.647346
8.984199 -1.787068 -1.635806
8.911204 -1.829461 -1.624529
8.876788 -1.879230 -1.620326
8.888310 -1.938727 -1.624570
8.866488 -1.991036 -1.622784
8.918958 -2.060385 -1.634671
8.866442 -2.105642 -1.627383
8.910328 -2.173906 -1.637855
8.839438 -2.214164 -1.627291
8.824014 -2.267930 -1.626983
8.867054 -2.337086 -1.637532
8.904296 -2.405429 -1.647104
8.936140 -2.472963 -1.655771
8.814508 -2.497630 -1.636042
8.986601 -2.606066 -1.670921
9.141771 -2.711984 -1.702834
8.825794 -2.677275 -1.647006
8.865830 -2.748938 -1.657594
8.624937 -2.732367 -1.615660
8.544711 -2.764757 -1.603779
8.544341 -2.822669 -1.606930
8.511954 -2.870017 -1.604121
8.460671 -2.910662 -1.597792
8.505560 -2.984595 -1.609698
8.407863 -3.008382 -1.594672
8.627737 -3.146903 -1.640006
8.859371 -3.293120 -1.687845
8.962081 -3.394031 -1.711348
8.959699 -3.456137 -1.714911
8.758994 -3.440605 -1.680504
9.102810 -3.640288 -1.750722
9.563641 -3.892813 -1.843911
9.694640 -4.015652 -1.873884
9.774170 -4.119037 -1.894106
9.463230 -4.056556 -1.838639
9.493953 -4.138868 -1.849508
9.594876 -4.253116 -1.874217
10.268108 -4.627130 -2.011231
10.169926 -4.658169 -1.997561
10.167746 -4.732861 -2.002799
9.928512 -4.695836 -1.961314
10.145866 -4.875040 -2.010123
10.256070 -5.005682 -2.038003
10.122410 -5.017584 -2.017524
9.963171 -5.015039 -1.991881
9.949883 -5.085108 -1.995425
9.963876 -5.169610 -2.004555
9.959667 -5.245238 -2.010146
9.918804 -5.301711 -2.008426
9.967282 -5.406514 -2.024921
9.858095 -5.425837 -2.009465
9.778877 -5.460681 -2.000110
9.771710 -5.535605 -2.005554
9.678093 -5.561288 -1.993306
9.591313 -5.589984 -1.982459
9.658304 -5.708706 -2.003509
9.354789 -5.607045 -1.947648
9.200901 -5.591830 -1.922716
9.157854 -5.642904 -1.920920
8.994601 -5.618746 -1.893873
8.836265 -5.595503 -1.867728
8.792629 -5.643751 -1.865789
8.676143 -5.644450 -1.848386
8.516933 -5.615550 -1.821774
8.507019 -5.684208 -1.827079
8.463628 -5.730644 -1.825278
8.387666 -5.754585 -1.816477
8.342822 -5.799424 -1.814437
8.297206 -5.843552 -1.812280
8.297991 -5.920607 -1.820353
8.167379 -5.903375 -1.799612
8.179120 -5.988609 -1.810262
8.257238 -6.123985 -1.835834
8.215960 -6.171871 -1.835042
8.200512 -6.239345 -1.840108
8.200862 -6.319434 -1.848852
8.054825 -6.286047 -1.824590
8.063977 -6.373189 -1.835487
8.073424 -6.461528 -1.846627
8.006877 -6.489266 -1.840479
7.888971 -6.474311 -1.822474
7.922861 -6.583893 -1.839601
7.822605 -6.582142 -1.825666
7.753071 -6.605311 -1.818863
7.732265 -6.669897 -1.823549
7.690964 -6.717016 -1.823494
7.561344 -6.686037 -1.802455
7.612887 -6.815303 -1.824676
7.603865 -6.891742 -1.832615
7.516595 -6.897123 -1.821747
7.393395 -6.868113 -1.802068
7.371663 -6.932673 -1.807105
7.277418 -6.928678 -1.794390
7.245592 -6.983634 -1.797075
7.229481 -7.054186 -1.803781
7.137163 -7.050110 -1.791507
7.118829 -7.118829 -1.797835
7.123457 -7.211415 -1.810145
7.136488 -7.313829 -1.824826
7.053471 -7.318049 -1.815046
7.019739 -7.373063 -1.817973
7.133277 -7.584969 -1.859396
7.062467 -7.602614 -1.853063
6.995705 -7.624030 -1.847786
6.922663 -7.637982 -1.840837
6.841138 -7.641744 -1.831593
6.781313 -7.669093 -1.828140
6.708256 -7.680934 -1.821116
6.674865 -7.738023 -1.824907
6.578727 -7.721868 -1.811543
6.485649 -7.707927 -1.798902
6.446987 -7.758112 -1.801348
6.295515 -7.671107 -1.772144
6.317013 -7.794340 -1.791625
6.412606 -8.012298 -1.832646
6.379103 -8.071461 -1.837191
6.282623 -8.050437 -1.823596
6.191012 -8.034207 -1.811281
6.124403 -8.049442 -1.806209
6.035009 -8.033770 -1.794350
6.091113 -8.212915 -1.825980
6.010563 -8.209105 -1.816898
5.923178 -8.194776 -1.805649
5.805279 -8.136354 -1.784894
5.762888 -8.182672 -1.787264
5.762167 -8.289224 -1.802780
5.617881 -8.188411 -1.773325
5.490932 -8.109596 -1.748927
5.353421 -8.340312 -1.769808
5.352605 -8.452687 -1.786651
5.272406 -8.440175 -1.777135
5.218215 -8.468628 -1.776350
4.660273 -7.668101 -1.602406
4.205385 -7.114903 -1.475908
4.474651 -7.677621 -1.586912
4.117664 -7.165811 -1.475875
1.611759 -8.656745 -1.572464
1.333207 -8.285867 -1.498699
1.473956 -9.533215 -1.722644
1.436745 -9.685750 -1.748581
1.248689 -9.637008 -1.735338
1.215469 -9.854765 -1.773173
1.079268 -9.215566 -1.656939
0.992337 -8.948199 -1.607742
0.928100 -8.865166 -1.591770
0.956865 -9.715211 -1.743311
0.907390 -9.830916 -1.763041
0.712468 -8.273468 -1.482922
0.671391 -8.399046 -1.504664
0.721382 -9.779532 -1.751148
0.670775 -9.923020 -1.776071
0.535070 -9.679363 -1.731154
0.484222 -9.856573 -1.762283
0.407777 -9.488054 -1.695915
0.340129 -9.234551 -1.650200
0.290842 -9.476986 -1.693172
0.233536 -9.513200 -1.699354
0.158677 -8.619124 -1.539441
0.106007 -8.637759 -1.542624
0.061215 -9.976376 -1.781588
0.000000 -10.006509 -1.786936
-0.060843 -9.915814 -1.770773
-0.109334 -8.908909 -1.591049
-0.174740 -9.491660 -1.695283
-0.235423 -9.590061 -1.713084
-0.301168 -9.813459 -1.753286
-0.358019 -9.720264 -1.736996
-0.414705 -9.649270 -1.724732
-0.423562 -8.621806 -1.541516
-0.479295 -8.670390 -1.550699
-0.600671 -9.777119 -1.749264
-0.660921 -9.777244 -1.749979
-0.674116 -9.138773 -1.636412
-0.758732 -9.491676 -1.700405
-0.817174 -9.489352 -1.700855
-0.877032 -9.502011 -1.704057
-0.950331 -9.648875 -1.731408
-1.016300 -9.707646 -1.743040
-1.074081 -9.685318 -1.740181
-1.103074 -9.418839 -1.693487
-1.184669 -9.605046 -1.728241
-1.279245 -9.872824 -1.777801
-1.370477 -10.090665 -1.818508
-1.430734 -10.070578 -1.816436
-1.480697 -9.982051 -1.802073
-1.557600 -10.074201 -1.820400
-1.623743 -10.091543 -1.825300
-1.686638 -10.087401 -1.826388
-1.711390 -9.862986 -1.787624
-1.794519 -9.978201 -1.810468
-1.842414 -9.895590 -1.797496
-1.860611 -9.663437 -1.757367
-1.865027 -9.376122 -1.707166
-1.928463 -9.393436 -1.712440
-2.027243 -9.575942 -1.747946
-2.101825 -9.636053 -1.761240
-2.151044 -9.579036 -1.753198
-2.204434 -9.542515 -1.748956
-2.256101 -9.499994 -1.743667
-2.303132 -9.439994 -1.735216
-2.377429 -9.491230 -1.747283
-2.431202 -9.459268 -1.744112
-2.527351 -9.588928 -1.770845
-2.597809 -9.616437 -1.778835
-2.663697 -9.625364 -1.783476
-2.702763 -9.538453 -1.770412
-2.798970 -9.651799 -1.794604
-2.872929 -9.684298 -1.803891
-2.896855 -9.549651 -1.782087
-2.949911 -9.514006 -1.778780
-3.079604 -9.721017 -1.820982
-3.060664 -9.459238 -1.775429
-3.155551 -9.551990 -1.796439
-3.266304 -9.687271 -1.825616
-3.319278 -9.648429 -1.822100
-3.418860 -9.743136 -1.843912
-3.391082 -9.477439 -1.797532
-3.290697 -9.021971 -1.714944
-3.384949 -9.106414 -1.734910
-3.376740 -8.916422 -1.702629
-3.473150 -9.003802 -1.723352
-3.546908 -9.029615 -1.732426
-3.634411 -9.088114 -1.747895
-3.719829 -9.138663 -1.761974
-3.855022 -9.306846 -1.798927
-3.855372 -9.148511 -1.772862
-3.904500 -9.108510 -1.769719
-3.940761 -9.039525 -1.760981
-3.967517 -8.950574 -1.748362
-4.050377 -8.988229 -1.760539
-4.093929 -8.938052 -1.755598
-4.177898 -8.975502 -1.767956
-4.254756 -8.995925 -1.777088
-4.195672 -8.731975 -1.729999
-4.288061 -8.785745 -1.745832
-4.437889 -8.952939 -1.784433
-4.445915 -8.832515 -1.765835
-4.448878 -8.704988 -1.745764
-4.494143 -8.661984 -1.742638
-4.513557 -8.570351 -1.729742
-4.594591 -8.595875 -1.740550
-4.682838 -8.633135 -1.753880
-4.761624 -8.651299 -1.763473
-4.829782 -8.649076 -1.769028
-4.914845 -8.675915 -1.780652
-4.759964 -8.283580 -1.706091
-4.910781 -8.425935 -1.741584
-4.954601 -8.382468 -1.738850
-4.947089 -8.253720 -1.718408
-5.027451 -8.272262 -1.728658
-5.094621 -8.268046 -1.734277
-5.147368 -8.240011 -1.734989
-5.317576 -8.397370 -1.774958
-5.444661 -8.482458 -1.799971
-5.427996 -8.343430 -1.777504
-5.528548 -8.384981 -1.793549
-5.503351 -8.236347 -1.768946
-5.465565 -8.072132 -1.740847
-5.557482 -8.100375 -1.754259
-5.721972 -8.231401 -1.790205
-5.540826 -7.867369 -1.718395
-5.506648 -7.717809 -1.693077
-5.893965 -8.154359 -1.796744
-5.768781 -7.778300 -1.729352
-5.553557 -7.392864 -1.651203
-5.524942 -7.261557 -1.629416
-5.936009 -7.703284 -1.736675
-6.069092 -7.776823 -1.761617
-6.342659 -8.025348 -1.826695
-6.202275 -7.749498 -1.772536
-6.210008 -7.662311 -1.761276
-6.157099 -7.502447 -1.733181
-5.907281 -7.108646 -1.650550
-5.905187 -7.018071 -1.637901
-6.521384 -7.654561 -1.795753
-6.219606 -7.210252 -1.700439
-5.560561 -6.366827 -1.509547
-6.615537 -7.481615 -1.783449
-6.634966 -7.411445 -1.776394
-6.692064 -7.383554 -1.779518
-6.669651 -7.268692 -1.761665
-6.752953 -7.269428 -1.771852
-6.327777 -6.728464 -1.649430
-6.544022 -6.873401 -1.694772
-6.416894 -6.657594 -1.651238
-6.371204 -6.529527 -1.629140
-6.778560 -6.862260 -1.722503
-6.878249 -6.878249 -1.737078
-6.700118 -6.618396 -1.681804
-6.802789 -6.637839 -1.697320
-6.769460 -6.524716 -1.678983
-6.455875 -6.146504 -1.591823
-6.449138 -6.065086 -1.580956
-6.415830 -5.960002 -1.563796
-6.733014 -6.178121 -1.631836
-7.169464 -6.498024 -1.727919
-6.559475 -5.872255 -1.572192
-6.667122 -5.895331 -1.589293
-7.075291 -6.179309 -1.677521
-7.095775 -6.120857 -1.673441
-7.096874 -6.046257 -1.664920
-7.195519 -6.054496 -1.679315
-7.182570 -5.968712 -1.667714
-7.441332 -6.106943 -1.719062
-7.619966 -6.175689 -1.751543
-7.568370 -6.057310 -1.731107
-7.648279 -6.044651 -1.740868
-7.536547 -5.881579 -1.707189
-7.557988 -5.824047 -1.703919
-7.661644 -5.829348 -1.719192
-7.840210 -5.889606 -1.751118
-8.034195 -5.958565 -1.786245
-8.321779 -6.093062 -1.841836
-8.126071 -5.873518 -1.790511
-8.123591 -5.796172 -1.782094
-8.413233 -5.925267 -1.837623
-8.360312 -5.811583 -1.818241
-8.509355 -5.838073 -1.842830
-8.737651 -5.916182 -1.884374
-8.657039 -5.784448 -1.859299
-8.645069 -5.700035 -1.849182
-8.483132 -5.518883 -1.807266
-8.663069 -5.560591 -1.838297
-8.769966 -5.553520 -1.853714
-8.916441 -5.569920 -1.877415
-8.764057 -5.400253 -1.838318
-8.680753 -5.275711 -1.814021
-8.946248 -5.362175 -1.862590
-9.122861 -5.392223 -1.892437
-9.296895 -5.418392 -1.921605
-9.780231 -5.619979 -2.014342
-10.054542 -5.695828 -2.063602
-10.259377 -5.729000 -2.098388
-10.175567 -5.600571 -2.074178
-10.290603 -5.581892 -2.090606
-10.761233 -5.751999 -2.179007
-10.735447 -5.653800 -2.166720
-10.895137 -5.652781 -2.191908
-11.543019 -5.899316 -2.314925
-11.523046 -5.800214 -2.303738
-11.558479 -5.729431 -2.303750
-11.533742 -5.629276 -2.291892
-12.059105 -5.794342 -2.389178
-12.014688 -5.682524 -2.373425
-11.983326 -5.577973 -2.360424
-12.177879 -5.577879 -2.391960
-12.213928 -5.503977 -2.392362
-12.243493 -5.427167 -2.391585
-12.313291 -5.367952 -2.398740
-12.334610 -5.287417 -2.396528
-12.492727 -5.264693 -2.420927
-12.613212 -5.224564 -2.438017
-12.621881 -5.137649 -2.433553
-12.715420 -5.085001 -2.445526
-12.794043 -5.025606 -2.454671
-10.307536 -3.976055 -1.972890
-9.286563 -3.516916 -1.773309
-10.268631 -3.816957 -1.956330
-9.365314 -3.415928 -1.780208
-10.224106 -3.658244 -1.939148
-9.501524 -3.334078 -1.798186
-9.536636 -3.280818 -1.800988
-9.515958 -3.208542 -1.793331
-9.602996 -3.172402 -1.806031
-9.526576 -3.082452 -1.788068
-9.559992 -3.028591 -1.790818
-9.589446 -2.973302 -1.792884
-9.634564 -2.922613 -1.797933
-9.774198 -2.899599 -1.820636
-9.805695 -2.843599 -1.823219
-9.826907 -2.784498 -1.823952
-9.406957 -2.603256 -1.743008
-9.641349 -2.604539 -1.783444
-9.771480 -2.575466 -1.804558
-9.804130 -2.519838 -1.807698
-9.807972 -2.456769 -1.805593
-9.866920 -2.407291 -1.813691
-9.829723 -2.334406 -1.804187
-9.845924 -2.274525 -1.804565
-9.843953 -2.210534 -1.801684
-9.863781 -2.151497 -1.802863
-9.700610 -2.053635 -1.770703
-9.676480 -1.986571 -1.764040
-9.862847 -1.961842 -1.795787
-10.052250 -1.935474 -1.828076
-10.120470 -1.884284 -1.838345
-10.079292 -1.812700 -1.828810
-10.093829 -1.751446 -1.829463
-10.122003 -1.692424 -1.832653
-10.169282 -1.636251 -1.839361
-10.155246 -1.570130 -1.835045
-10.163364 -1.507593 -1.834806
-10.164075 -1.444017 -1.833300
-10.190926 -1.384094 -1.836577
-10.187569 -1.320027 -1.834477
-10.220782 -1.260613 -1.839030
-10.229715 -1.198039 -1.839280
-10.227824 -1.134244 -1.837655
-10.231888 -1.071183 -1.837169
-10.235135 -1.008073 -1.836607
-10.215208 -0.942860 -1.831959
-10.216972 -0.879833 -1.831272
-10.229640 -0.817723 -1.832609
-10.221053 -0.753950 -1.830208
-10.226925 -0.691318 -1.830465
-10.231050 -0.628558 -1.830478
-10.234953 -0.565783 -1.830521
-10.240144 -0.503066 -1.830863
-10.245479 -0.440329 -1.831299
-10.221734 -0.376489 -1.826608
-10.239772 -0.314251 -1.829452
-10.229837 -0.251128 -1.827368
-10.244565 -0.188601 -1.829757
-10.220638 -0.125432 -1.825312
-10.224895 -0.062740 -1.825969
-9.582277 0.000000 -1.786784
-9.573429 0.058743 -1.785168
-9.574573 0.117504 -1.785482
-9.571861 0.176217 -1.785144
-9.563190 0.234763 -1.783762
-9.563848 0.293507 -1.784187
-9.548184 0.351680 -1.781634
-9.555593 0.410679 -1.783453
-9.546250 0.468977 -1.782213
-9.537556 0.527231 -1.781160
-9.530848 0.585541 -1.780545
-9.528063 0.644076 -1.780729
-9.516455 0.701976 -1.779332
-9.502274 0.759580 -1.777518
-9.501270 0.818200 -1.778236
-9.492788 0.876181 -1.777621
-9.489090 0.934594 -1.777969
-9.486486 0.993147 -1.778589
-9.452571 1.048270 -1.773403
-9.448705 1.106572 -1.773919
-9.435048 1.163702 -1.772662
-9.441584 1.223368 -1.775267
-9.410781 1.278137 -1.770916
-9.430023 1.339730 -1.776051
-9.407647 1.395493 -1.773416
-9.390048 1.451821 -1.771744
-9.380818 1.509386 -1.771717
-9.367285 1.566233 -1.770942
-9.347653 1.621972 -1.769079
-9.337387 1.679272 -1.769053
-9.338388 1.738671 -1.771231
-9.313963 1.793323 -1.768652
-9.320455 1.853954 -1.772011
-9.293625 1.907971 -1.769103
-9.283311 1.965292 -1.769402
-9.263204 2.020499 -1.767899
-9.241813 2.075319 -1.766214
-9.224989 2.131082 -1.765464
-9.217717 2.189064 -1.766610
-9.201722 2.244999 -1.766151
-9.176139 2.298503 -1.763915
-9.154195 2.352793 -1.762438
-9.143292 2.409894 -1.763153
-9.128912 2.466108 -1.763265
-9.107533 2.520394 -1.762089
-9.101274 2.578886 -1.763907
-9.076624 2.632172 -1.762226
-9.060075 2.687748 -1.762182
-9.049023 2.744991 -1.763275
-9.023804 2.797919 -1.761673
-8.997870 2.850512 -1.759992
-8.983282 2.906662 -1.760594
-8.946929 2.955666 -1.756991
-8.929949 3.010954 -1.757251
-8.911531 3.065768 -1.757296
-8.889376 3.119276 -1.756668
-8.860837 3.170458 -1.754840
-8.851550 3.228537 -1.756891
-8.813359 3.276017 -1.753267
-8.782155 3.325892 -1.751087
-8.780420 3.386982 -1.754851
-8.759454 3.440786 -1.754848
-8.726730 3.489891 -1.752549
-8.689134 3.536851 -1.749324
-8.674419 3.593062 -1.750767
-8.650840 3.645643 -1.750490
-8.624139 3.696868 -1.749644
-8.597556 3.748086 -1.748884
-8.565255 3.796716 -1.747020
-8.542014 3.849298 -1.747064
-8.516819 3.900990 -1.746773
-8.491032 3.952388 -1.746426
-8.466565 4.004387 -1.746414
-8.440156 4.055454 -1.746067
-8.402291 4.100908 -1.743406
-8.373916 4.150873 -1.742771
-8.354929 4.205518 -1.744157
-8.315246 4.249691 -1.741284
-8.292632 4.302510 -1.742044
-8.254978 4.347466 -1.739705
-8.224884 4.396292 -1.739015
-8.201479 4.448697 -1.739805
-8.172351 4.498013 -1.739448
-8.144113 4.547802 -1.739344
-8.113213 4.596079 -1.738736
-8.081326 4.643743 -1.737976
-8.054428 4.694261 -1.738353
-8.016404 4.738233 -1.736388
-7.982514 4.784535 -1.735374
-7.949697 4.831413 -1.734652
-7.911365 4.874840 -1.732782
-7.882878 4.924274 -1.733128
-7.844250 4.967317 -1.731304
-7.815100 5.016302 -1.731631
-7.778078 5.060195 -1.730275
-7.744831 5.106472 -1.729817
-7.713856 5.154234 -1.729930
-7.678668 5.199155 -1.729160
-7.642966 5.243664 -1.728333
-7.606222 5.287385 -1.727328
-7.579944 5.338399 -1.728767
-7.543882 5.382551 -1.728042
-7.525013 5.439074 -1.731332
-7.494583 5.487403 -1.732046
-7.430849 5.511093 -1.725099
-7.393511 5.554043 -1.724310
-7.386157 5.619744 -1.730604
-7.538592 5.809101 -1.774639
-7.519628 5.868375 -1.778618
-7.512787 5.937568 -1.785583
-7.403961 5.925726 -1.768327
-7.271328 5.893132 -1.745253
-7.206329 5.914082 -1.738329
-7.207836 5.989708 -1.747526
-7.146481 6.013234 -1.741563
-7.057173 6.012433 -1.728757
-7.050090 6.081450 -1.736130
-6.965354 6.083294 -1.724423
-6.983667 6.175232 -1.738305
-6.966029 6.236216 -1.743406
-7.046927 6.386962 -1.773428
-7.019216 6.440735 -1.776366
-6.972492 6.477114 -1.774566
-6.938437 6.525246 -1.776056
-6.821107 6.494234 -1.756190
-6.788582 6.543147 -1.758120
-6.763364 6.599370 -1.762042
-6.700569 6.618841 -1.756230
-6.692993 6.692993 -1.764976
-6.545668 6.626493 -1.736815
-6.441757 6.601834 -1.719959
-6.571487 6.817985 -1.765734
-6.601430 6.933698 -1.785178
-6.488820 6.899704 -1.766141
-6.982580 7.516617 -1.913052
-7.037628 7.669719 -1.940990
-6.219397 6.862047 -1.726901
-7.020529 7.842130 -1.962670
-6.966037 7.878000 -1.960913
-6.922337 7.926056 -1.962265
-6.876067 7.971272 -1.962977
-6.826201 8.012344 -1.962740
-6.780535 8.058386 -1.963790
-6.732279 8.101424 -1.964174
-6.679814 8.139376 -1.963401
-6.634574 8.186167 -1.964831
-6.579434 8.220743 -1.963403
-6.530033 8.262432 -1.963753
-6.482749 8.306875 -1.964825
-6.435154 8.351034 -1.965893
-6.381296 8.387082 -1.965125
-6.334442 8.432374 -1.966593
-6.285967 8.475646 -1.967652
-6.235267 8.516000 -1.968101
-6.180708 8.551071 -1.967405
-6.134042 8.597130 -1.969305
-6.085423 8.640636 -1.970681
-6.030138 8.674718 -1.969978
-5.972608 8.705447 -1.968597
-5.926339 8.752652 -1.971011
-5.872641 8.789028 -1.971051
-5.811140 8.813580 -1.968523
