24.693830 30.853965 -0.948570
24.862879 30.677432 -0.947815
25.044228 30.516480 -0.947573
25.236279 30.368587 -0.947771
25.428202 30.220371 -0.947997
25.260750 29.650140 -0.934954
25.242333 29.262879 -0.927609
25.212036 28.867709 -0.919969
25.164771 28.459235 -0.911855
25.130993 28.072030 -0.904372
25.204384 27.808752 -0.900856
25.246497 27.514034 -0.896310
25.107494 27.027749 -0.885471
24.913733 26.491315 -0.872888
24.696601 25.939651 -0.859688
24.609782 25.532902 -0.851196
24.554004 25.164168 -0.843910
24.494190 24.796639 -0.836609
24.405472 24.405472 -0.828449
24.380262 24.082892 -0.822561
24.203785 23.616907 -0.811703
24.355338 23.474792 -0.811939
24.658475 23.476820 -0.817227
24.886315 23.404312 -0.820004
25.185162 23.395819 -0.825105
25.525221 23.421590 -0.831522
25.836299 23.416656 -0.836959
26.151990 23.412110 -0.842516
26.512265 23.443184 -0.849473
26.810763 23.415572 -0.854417
13.212960 11.397578 -0.418840
13.256998 11.294439 -0.418031
13.379672 11.258002 -0.419713
28.095270 23.347154 -0.876823
26.984569 22.145663 -0.837903
27.107720 21.969765 -0.837525
27.010597 21.079277 -0.822395
27.177566 20.942534 -0.823551
27.442667 20.879703 -0.827686
27.941392 20.989717 -0.838828
28.620960 20.955768 -0.851444
29.530591 21.070042 -0.870747
29.792399 20.982174 -0.874654
30.221277 21.008001 -0.883444
30.582233 20.981769 -0.890215
33.339395 22.573793 -0.966423
33.161387 22.157730 -0.957304
32.636052 21.518235 -0.938309
32.876209 21.388320 -0.941423
34.222067 21.966223 -0.976084
34.771125 22.018572 -0.987872
35.055123 21.898226 -0.992105
35.581737 21.924823 -1.003182
35.370627 21.496431 -0.993493
36.483200 21.867188 -1.020955
36.791461 21.746223 -1.025828
36.969489 21.546460 -1.027086
36.931230 21.221660 -1.022386
36.909444 20.908942 -1.018212
36.886838 20.598198 -1.014083
36.933551 20.328007 -1.011919
36.985688 20.062005 -1.009955
37.047880 19.802504 -1.008317
37.100157 19.538718 -1.006458
37.127021 19.262806 -1.003961
36.863614 18.839968 -0.993694
36.985497 18.616935 -0.993881
32.925172 16.320702 -0.882063
33.320847 16.262913 -0.889974
33.825580 16.253030 -0.900774
33.937447 16.051217 -0.901113
34.463280 16.041895 -0.912444
34.613313 15.854063 -0.913824
34.628039 15.604474 -0.911668
34.927564 15.482324 -0.917035
35.577978 15.510141 -0.931596
35.888940 15.384336 -0.937249
36.178136 15.246214 -0.942340
36.438756 15.093427 -0.946698
36.838505 14.994856 -0.954676
37.311756 14.921277 -0.964549
37.038177 14.548904 -0.955151
37.320569 14.396132 -0.960137
38.085401 14.423329 -0.977519
38.797358 14.421382 -0.993502
39.778442 14.508889 -1.016327
40.332543 14.431215 -1.028202
40.631063 14.257412 -1.033562
37.645412 12.950873 -0.955575
38.463465 12.968913 -0.974302
39.309570 12.986128 -0.993697
40.442182 13.085614 -1.020279
40.655187 12.879504 -1.023640
40.966239 12.701984 -1.029490
40.671807 12.337658 -1.020169
41.022645 12.169717 -1.027077
41.317479 11.981847 -1.032598
39.255152 11.123121 -0.979333
39.798462 11.013718 -0.991182
40.932809 11.057693 -1.017724
41.918269 11.048384 -1.040521
42.761639 10.990511 -1.059762
42.115339 10.549343 -1.042121
43.081781 10.510919 -1.064419
37.271436 8.851387 -0.919504
37.554478 8.675528 -0.925156
35.186165 7.901318 -0.865602
36.333469 7.925091 -0.892613
38.304671 8.109161 -0.939800
38.539669 7.912153 -0.944357
38.769817 7.711796 -0.948819
39.209095 7.549373 -0.958418
39.612579 7.375284 -0.967156
40.003130 7.194320 -0.975595
40.200501 6.975449 -0.979346
40.547958 6.779717 -0.986779
40.942400 6.587688 -0.995376
41.427796 6.405264 -1.006202
43.086131 6.391224 -1.045507
43.425341 6.169468 -1.052800
43.466792 5.903498 -1.052907
43.607253 5.650292 -1.055450
43.587170 5.375965 -1.054146
43.595455 5.105621 -1.053568
43.618309 4.837179 -1.053384
43.660822 4.570881 -1.053713
43.505158 4.284884 -1.049302
43.590445 4.023382 -1.050744
43.686373 3.762046 -1.052480
43.640398 3.488466 -1.050837
43.770815 3.228729 -1.053480
43.876113 2.965930 -1.055557
44.010450 2.703842 -1.058370
44.152535 2.440731 -1.061406
22.928111 1.126386 -0.551005
22.873136 0.983039 -0.549528
22.854716 0.841789 -0.548951
22.881220 0.702207 -0.549474
22.868897 0.561400 -0.549085
22.876077 0.421145 -0.549185
22.872282 0.280699 -0.549042
22.883346 0.140412 -0.549277
22.871825 -0.000000 -0.548990
22.913921 -0.140600 -0.550011
22.946374 -0.281609 -0.550821
41.927431 -0.771878 -1.006550
40.678532 -0.998602 -0.976696
40.068321 -1.229667 -0.962208
38.553806 -1.420021 -0.926030
38.186639 -1.641181 -0.917436
38.964101 -1.914184 -0.936379
36.692113 -2.028322 -0.882061
40.322426 -2.477263 -0.969679
39.373806 -2.661584 -0.947242
40.347549 -2.976214 -0.971089
40.250594 -3.217496 -0.969212
40.340106 -3.473882 -0.971863
40.574618 -3.745022 -0.978048
38.903041 -3.831615 -0.938303
35.492288 -3.715712 -0.856573
39.167184 -4.343559 -0.945889
39.322393 -4.605187 -0.950302
37.491328 -4.624114 -0.906719
37.019976 -4.796763 -0.896014
37.557280 -5.100890 -0.909759
36.806131 -5.229072 -0.892325
37.416119 -5.550157 -0.907922
35.836555 -5.540787 -0.870401
37.047119 -5.960932 -0.900675
33.385498 -5.582137 -0.812473
29.000638 -5.032088 -0.706500
33.739928 -6.067922 -0.822848
34.097257 -6.348411 -0.832497
32.180083 -6.195997 -0.786602
34.434220 -6.849392 -0.842713
34.293670 -7.040454 -0.840315
45.250260 -9.579553 -1.110209
44.358629 -9.675547 -1.089769
43.867319 -9.850736 -1.079164
31.938197 -7.378101 -0.786799
42.217552 -10.026012 -1.041527
41.965405 -10.238551 -1.036837
39.907580 -9.996328 -0.987491
41.073426 -10.556609 -1.017923
46.890928 -12.359026 -1.163955
35.161303 -9.498564 -0.874226
35.191088 -9.738686 -0.876436
35.015778 -9.921876 -0.873569
34.791011 -10.089206 -0.869490
34.300755 -10.175610 -0.858782
33.120194 -10.046901 -0.830752
33.201654 -10.294499 -0.834364
33.103631 -10.487182 -0.833502
39.336615 -12.727893 -0.992388
38.417113 -12.691300 -0.971137
36.246677 -12.221468 -0.918149
35.653293 -12.265539 -0.905008
35.122733 -12.324543 -0.893443
34.313931 -12.277721 -0.874769
33.676442 -12.283230 -0.860422
32.914023 -12.234486 -0.842845
32.408318 -12.273360 -0.831808
31.804718 -12.268433 -0.818232
31.263187 -12.280440 -0.806224
30.461877 -12.181954 -0.787472
29.982661 -12.204233 -0.777005
29.534100 -12.233425 -0.767312
29.128451 -12.275331 -0.758715
28.815616 -12.352249 -0.752527
28.649986 -12.489898 -0.750189
27.578259 -12.224601 -0.724076
27.272483 -12.289831 -0.718015
26.913275 -12.327186 -0.710536
26.369054 -12.274212 -0.698143
25.985027 -12.290002 -0.689959
25.528309 -12.266230 -0.679818
25.125989 -12.263247 -0.671095
24.689712 -12.238461 -0.661436
24.373639 -12.268659 -0.654973
23.997070 -12.264235 -0.646864
23.589386 -12.239004 -0.637886
23.219757 -12.228635 -0.629908
22.952263 -12.268240 -0.624682
22.781102 -12.357066 -0.622076
22.531879 -12.401412 -0.617337
22.139004 -12.362773 -0.608639
21.661041 -12.270828 -0.597558
21.445023 -12.322877 -0.593674
21.101700 -12.298437 -0.586247
20.800135 -12.294276 -0.579954
20.475714 -12.272670 -0.572997
20.243908 -12.303197 -0.568612
20.227823 -12.464019 -0.570298
19.671222 -12.288214 -0.556721
19.555239 -12.383219 -0.555578
19.323788 -12.403419 -0.551154
19.016195 -12.371392 -0.544536
18.818071 -12.407496 -0.541033
18.653813 -12.464079 -0.538499
18.294943 -12.387335 -0.530323
18.122768 -12.433615 -0.527534
17.747475 -12.336970 -0.518803
17.521586 -12.340093 -0.514404
17.370631 -12.393925 -0.512195
17.201863 -12.433494 -0.509459
17.033091 -12.471332 -0.506717
16.863238 -12.506630 -0.503937
16.669263 -12.522035 -0.500427
16.499788 -12.553833 -0.497643
16.226258 -12.503657 -0.491698
15.764776 -12.302952 -0.479992
15.829818 -12.510751 -0.484301
15.520548 -12.421800 -0.477162
15.412395 -12.491153 -0.476184
15.221585 -12.492032 -0.472648
15.109268 -12.555793 -0.471544
14.933896 -12.565767 -0.468468
14.745044 -12.562196 -0.464953
14.607390 -12.600421 -0.463042
14.456447 -12.625749 -0.460704
14.245333 -12.596282 -0.456431
14.088641 -12.612609 -0.453882
13.882307 -12.582190 -0.449713
13.753162 -12.619711 -0.448030
13.571018 -12.606831 -0.444608
13.476149 -12.673632 -0.444039
13.467725 -12.822340 -0.446345
13.289368 -12.808903 -0.443031
13.147502 -12.828710 -0.440917
12.783931 -12.628003 -0.431315
12.701152 -12.701152 -0.431143
12.282363 -12.434023 -0.419509
12.202302 -12.505528 -0.419388
12.382106 -12.846562 -0.428269
11.782870 -12.375936 -0.410161
11.783541 -12.529696 -0.412853
11.619028 -12.507667 -0.409770
11.474724 -12.505337 -0.407380
11.444560 -12.627126 -0.409052
11.328316 -12.654050 -0.407665
10.993839 -12.433105 -0.398366
10.943230 -12.529968 -0.399310
10.734471 -12.444235 -0.394472
10.632923 -12.480535 -0.393547
10.538689 -12.524798 -0.392896
10.403833 -12.519663 -0.390725
10.239512 -12.476882 -0.387422
10.175083 -12.554677 -0.387892
10.065733 -12.576735 -0.386658
9.946978 -12.585883 -0.385055
9.753440 -12.497878 -0.380525
9.675947 -12.556680 -0.380500
9.575774 -12.585657 -0.379590
9.395271 -12.506932 -0.375470
9.343552 -12.598321 -0.376486
9.137082 -12.479240 -0.371245
8.933560 -12.359670 -0.366050
8.864865 -12.424499 -0.366352
8.779629 -12.466115 -0.365984
8.687347 -12.497272 -0.365327
8.484242 -12.366311 -0.359970
8.455103 -12.487402 -0.361978
8.319277 -12.450678 -0.359426
8.211031 -12.453421 -0.358044
8.103101 -12.455361 -0.356664
8.039490 -12.525047 -0.357240
7.863281 -12.417478 -0.352789
7.834007 -12.540836 -0.354922
7.773205 -12.615113 -0.355667
7.597690 -12.501381 -0.351140
7.536812 -12.574410 -0.351885
7.388691 -12.500596 -0.348544
7.317696 -12.555728 -0.348823
7.304243 -12.711290 -0.351893
7.319870 -12.921377 -0.356459
7.231233 -12.949546 -0.356005
7.166550 -13.020763 -0.356748
7.007394 -12.918614 -0.352764
6.882656 -12.876544 -0.350456
7.062398 -13.410095 -0.363791
7.120781 -13.724552 -0.371129
6.691252 -13.092576 -0.352923
6.559478 -13.031444 -0.350183
6.454977 -13.022186 -0.348864
6.337471 -12.984753 -0.346813
6.230913 -12.967689 -0.345329
6.130761 -12.962405 -0.344180
5.887909 -12.649170 -0.334897
5.909561 -12.902023 -0.340625
5.850783 -12.983528 -0.341823
5.701091 -12.861454 -0.337682
5.739887 -13.166456 -0.344759
5.474202 -12.770346 -0.333501
5.308243 -12.596067 -0.328093
5.206244 -12.568984 -0.326549
5.092180 -12.510177 -0.324203
5.028089 -12.573108 -0.325028
4.980501 -12.679216 -0.326975
4.791876 -12.422470 -0.319590
4.715746 -12.452124 -0.319602
4.653848 -12.520089 -0.320608
4.615790 -12.654927 -0.323329
4.456535 -12.455180 -0.317521
4.372350 -12.460411 -0.316965
4.254811 -12.367824 -0.313939
4.217581 -12.508588 -0.316850
4.094447 -12.394068 -0.313307
4.026313 -12.443656 -0.313930
3.928745 -12.401400 -0.312250
3.867356 -12.472934 -0.313447
3.828379 -12.620473 -0.316559
3.713993 -12.519422 -0.313446
3.655041 -12.603822 -0.314992
3.582034 -12.641531 -0.315379
3.473380 -12.551184 -0.312588
3.406602 -12.610386 -0.313536
3.334342 -12.650706 -0.314024
3.259196 -12.680810 -0.314269
3.167806 -12.646591 -0.312933
3.084465 -12.642496 -0.312357
2.935950 -12.362705 -0.304994
2.913732 -12.612913 -0.310720
2.801713 -12.476596 -0.306932
2.708081 -12.415499 -0.305015
2.708391 -12.793434 -0.313885
2.560345 -12.471302 -0.305591
2.486002 -12.497976 -0.305865
2.425649 -12.598066 -0.307944
2.343760 -12.588311 -0.307348
2.287424 -12.718936 -0.310189
2.160393 -12.450654 -0.303317
2.097189 -12.542813 -0.305243
2.009987 -12.492045 -0.303702
1.959860 -12.675929 -0.307874
1.889774 -12.739822 -0.309138
1.810429 -12.743158 -0.308944
1.730793 -12.743634 -0.308692
1.650750 -12.739990 -0.308353
1.573279 -12.755806 -0.308496
1.492460 -12.743691 -0.307976
1.413111 -12.742452 -0.307731
1.333059 -12.733313 -0.307307
1.261209 -12.805268 -0.308851
1.177221 -12.754344 -0.307442
1.095384 -12.720032 -0.306447
1.018069 -12.735953 -0.306675
0.937735 -12.712562 -0.305967
0.854457 -12.640302 -0.304096
0.783145 -12.747257 -0.306548
0.701610 -12.692039 -0.305111
0.623487 -12.691362 -0.304997
0.543034 -12.635199 -0.303561
0.470570 -12.776061 -0.306870
0.391506 -12.757107 -0.306352
0.313613 -12.775160 -0.306733
0.235399 -12.786597 -0.306967
0.156846 -12.780302 -0.306787
0.078518 -12.796360 -0.307155
0.000000 -12.754593 -0.306147
-0.078422 -12.780559 -0.306776
-0.156767 -12.773898 -0.306634
-0.235482 -12.791078 -0.307075
-0.313817 -12.783473 -0.306933
-0.392974 -12.804945 -0.307500
-0.471845 -12.810685 -0.307702
-0.548959 -12.773061 -0.306873
-0.633815 -12.901594 -0.310049
-0.715593 -12.944990 -0.311191
-0.786181 -12.796674 -0.307736
-0.864697 -12.791787 -0.307741
-0.945547 -12.818473 -0.308516
-1.023362 -12.802165 -0.308269
-1.102712 -12.805128 -0.308498
-1.182043 -12.806583 -0.308702
-1.257035 -12.762892 -0.307829
-1.336843 -12.769453 -0.308179
-1.422206 -12.824466 -0.309711
-1.500134 -12.809217 -0.309559
-1.579429 -12.805671 -0.309702
-1.662146 -12.827939 -0.310482
-1.738941 -12.803625 -0.310145
-1.980780 -13.942215 -0.338014
-1.994153 -13.443488 -0.326213
-2.328556 -15.060570 -0.365792
-2.418193 -15.029040 -0.365380
-2.302987 -13.773645 -0.335197
-2.221896 -12.805102 -0.311952
-2.705752 -15.044999 -0.366917
-2.378262 -12.773620 -0.311873
-2.472004 -12.838822 -0.313829
-2.530457 -12.721465 -0.311334
-2.609739 -12.711898 -0.311486
-2.703407 -12.769893 -0.313308
-2.798665 -12.830795 -0.315217
-2.871706 -12.788289 -0.314600
-2.967577 -12.845997 -0.316462
-3.065454 -12.908020 -0.318447
-3.147779 -12.902005 -0.318769
-3.211936 -12.822767 -0.317292
-3.242237 -12.614826 -0.312633
-3.350681 -12.712697 -0.315562
-3.438502 -12.728472 -0.316472
-3.548044 -12.820984 -0.319307
-3.601545 -12.710390 -0.317097
-3.704042 -12.772797 -0.319215
-3.806622 -12.831663 -0.321264
-3.892317 -12.831250 -0.321846
-3.972218 -12.811136 -0.321946
-4.062870 -12.824777 -0.322910
-4.153798 -12.837660 -0.323870
-4.244974 -12.849718 -0.324825
-4.318480 -12.807835 -0.324430
-4.409962 -12.818814 -0.325387
-4.509969 -12.852600 -0.326941
-4.584546 -12.812949 -0.326642
-4.673923 -12.814307 -0.327401
-4.762917 -12.813515 -0.328122
-4.849958 -12.806515 -0.328698
-4.948669 -12.828943 -0.330047
-5.029015 -12.802720 -0.330160
-5.132609 -12.834468 -0.331785
-5.219627 -12.823280 -0.332317
-5.294196 -12.781319 -0.332066
-5.370946 -12.744857 -0.331968
-5.447466 -12.707975 -0.331872
-5.581233 -12.802526 -0.335229
-5.672852 -12.797749 -0.336009
-5.733243 -12.722695 -0.334956
-5.832798 -12.734430 -0.336201
-5.975826 -12.838045 -0.339898
-6.041551 -12.773787 -0.339172
-6.142357 -12.783389 -0.340421
-6.218043 -12.740058 -0.340277
-6.379500 -12.869920 -0.344784
-6.461579 -12.836952 -0.344957
-6.563484 -12.842576 -0.346184
-6.628358 -12.775459 -0.345464
-6.729900 -12.778748 -0.346663
-6.777615 -12.680026 -0.345107
-6.908961 -12.737145 -0.347809
-7.052612 -12.813750 -0.351076
-7.173815 -12.846724 -0.353179
-7.282431 -12.855288 -0.354636
-7.374147 -12.832941 -0.355261
-7.481865 -12.837410 -0.356649
-7.578110 -12.821064 -0.357480
-7.727817 -12.893083 -0.360803
-7.811395 -12.853014 -0.361016
-7.981484 -12.953129 -0.365197
-8.061772 -12.905447 -0.365241
-8.179253 -12.916452 -0.366966
-8.293258 -12.920401 -0.368517
-8.363597 -12.855771 -0.368130
-8.464331 -12.837594 -0.369090
-8.553609 -12.801381 -0.369551
-8.621397 -12.733002 -0.369097
-8.817662 -12.852290 -0.374116
-8.925465 -12.839819 -0.375340
-9.089869 -12.906623 -0.378916
-9.182254 -12.869333 -0.379468
-9.300033 -12.866688 -0.381066
-9.438340 -12.890692 -0.383485
-11.349908 -15.303580 -0.457329
-10.778354 -14.348083 -0.430743
-10.894307 -14.318634 -0.431858
-10.138500 -13.156945 -0.398690
-10.136507 -12.988734 -0.395470
-10.289479 -13.019248 -0.398314
-12.222823 -15.271935 -0.469518
-10.706369 -13.210212 -0.408145
-10.707194 -13.046753 -0.405117
-10.780737 -12.973219 -0.404880
-11.037698 -13.117849 -0.411500
-11.182862 -13.126033 -0.413901
-11.274894 -13.070735 -0.414331
-11.391682 -13.043444 -0.415674
-11.534191 -13.044197 -0.417946
-11.673795 -13.039959 -0.420097
-11.831179 -13.053695 -0.422870
-11.964214 -13.038791 -0.424758
-12.118872 -13.045740 -0.427399
-12.596974 -13.394637 -0.441353
-12.976569 -13.629717 -0.451714
-12.772977 -13.252095 -0.441788
-12.773063 -13.090472 -0.439005
-13.018649 -13.179400 -0.444657
-13.077311 -13.077311 -0.443912
-13.239573 -13.078088 -0.446688
-13.386797 -13.062203 -0.448942
-13.540971 -13.051410 -0.451418
-13.706798 -13.049957 -0.454269
-13.869962 -13.043993 -0.457015
-14.031043 -13.034172 -0.459679
-14.190969 -13.021437 -0.462292
-16.818130 -15.243065 -0.544818
-17.200646 -15.398576 -0.554138
-15.007496 -13.270216 -0.480851
-14.972697 -13.076623 -0.477156
-15.129826 -13.051078 -0.479603
-15.331077 -13.061472 -0.483433
-15.512637 -13.052734 -0.486623
-15.680953 -13.030863 -0.489386
-15.805830 -12.971509 -0.490790
-17.650809 -14.305302 -0.545343
-17.744629 -14.201833 -0.545539
-16.527687 -13.062298 -0.505651
-16.680400 -13.017512 -0.507870
-16.886417 -13.012363 -0.511702
-17.083607 -12.998031 -0.515251
-17.290115 -12.988422 -0.519066
-17.855590 -13.242608 -0.533593
-23.511714 -17.214866 -0.699449
-17.981170 -12.996776 -0.532539
-18.363121 -13.102065 -0.541460
-18.593461 -13.094993 -0.545872
-18.814825 -13.078927 -0.550005
-19.064769 -13.079901 -0.554954
-19.282078 -13.055715 -0.558938
-20.269246 -13.543477 -0.585133
-19.859391 -13.094079 -0.570971
-20.189336 -13.134604 -0.578129
-20.435687 -13.117117 -0.582868
-20.680235 -13.095615 -0.587540
-20.932896 -13.076357 -0.592428
-21.174026 -13.047052 -0.596975
-21.418176 -13.016856 -0.601595
-21.680957 -12.995065 -0.606725
-22.039563 -13.026861 -0.614512
-22.365857 -13.035210 -0.621368
-22.752238 -13.074037 -0.629862
-22.851236 -12.945065 -0.630392
-23.443122 -13.091013 -0.644492
-23.773855 -13.084988 -0.651365
-24.113665 -13.079883 -0.658464
-24.304865 -12.991221 -0.661495
-24.497585 -12.901601 -0.664574
-25.120431 -13.033365 -0.679288
-25.173162 -12.865303 -0.678566
-25.501738 -12.836496 -0.685287
-25.737998 -12.758086 -0.689520
-25.767328 -12.576265 -0.688225
-26.600648 -12.781485 -0.708374
-26.924239 -12.734217 -0.714897
-27.330157 -12.721584 -0.723589
-27.736693 -12.704340 -0.732275
-28.069367 -12.648932 -0.738995
-28.508304 -12.636862 -0.748495
-28.968721 -12.628850 -0.758535
-29.524943 -12.656313 -0.771051
-29.856099 -12.581977 -0.777669
-30.490749 -12.629682 -0.792166
-31.108696 -12.662577 -0.806187
-31.390151 -12.553179 -0.811469
-32.209358 -12.652103 -0.830624
-33.046954 -12.747617 -0.850191
-33.492904 -12.684104 -0.859646
-33.965131 -12.625193 -0.869761
-34.570477 -12.609323 -0.883265
-35.499467 -12.701912 -0.904992
-35.893514 -12.595010 -0.913050
-36.807620 -12.662653 -0.934309
-37.750744 -12.728601 -0.956248
-38.398048 -12.685002 -0.970655
-39.340084 -12.729015 -0.992475
-39.943493 -12.654040 -1.005720
-39.992334 -12.400015 -1.005015
-41.622648 -12.626092 -1.044019
-42.859603 -12.714666 -1.073068
-43.579971 -12.637957 -1.089142
-44.628120 -12.645575 -1.113377
-45.329372 -12.544327 -1.128930
-46.119537 -12.458849 -1.146684
-47.538821 -12.529791 -1.180038
-49.100178 -12.619629 -1.216850
-49.519930 -12.404097 -1.225343
-51.215098 -12.495253 -1.265368
-52.930794 -12.570240 -1.305828
-53.626497 -12.388354 -1.321091
-43.381456 11.149815 -1.417408
-44.208988 20.249206 -1.538745
-43.322590 20.165709 -1.512171
-42.699496 20.195358 -1.494720
-42.314147 20.331746 -1.485569
-42.136300 20.565473 -1.483728
-41.958733 21.120251 -1.486490
-42.097790 21.515010 -1.496066
-44.464996 23.070007 -1.585192
-43.931658 23.136514 -1.571210
-43.227909 23.105799 -1.551082
-42.335110 22.963671 -1.524074
-41.919956 23.072495 -1.514197
-41.325469 23.076801 -1.497810
-40.908505 23.174382 -1.487823
-34.517142 19.834461 -1.259775
-33.984162 19.806560 -1.244735
-33.514323 19.809215 -1.231955
-33.081365 19.828207 -1.220489
-32.661871 19.850190 -1.209483
-32.182303 19.830153 -1.196208
-31.883274 19.916836 -1.189613
-31.699449 20.073455 -1.187328
-31.637923 20.307530 -1.189668
-31.475959 20.477358 -1.188280
-31.447834 20.734796 -1.191999
-31.401662 20.981920 -1.195106
-31.388269 21.252704 -1.199537
-32.805997 22.507442 -1.258971
-32.225546 22.401248 -1.241947
-31.963251 22.511062 -1.237139
-31.628960 22.567226 -1.229536
-31.436541 22.722309 -1.227453
-31.233399 22.868550 -1.224977
-30.935559 22.943374 -1.218794
-30.775420 23.118653 -1.218051
-30.672462 23.337086 -1.219621
-29.801315 22.964347 -1.190562
-29.535852 23.050005 -1.185585
-29.474095 23.294209 -1.188821
-30.473142 24.389040 -1.235130
-30.370604 24.614207 -1.237072
-30.348440 24.906321 -1.242371
-30.321768 25.197373 -1.247585
-29.303657 24.656856 -1.211897
-29.128349 24.816204 -1.210922
-28.998452 25.014236 -1.211879
-28.862390 25.207390 -1.212634
-28.578506 25.270236 -1.207199
-28.765379 25.751702 -1.221745
-28.590446 25.912869 -1.221045
-23.860271 21.893855 -1.024746
-23.302051 21.646498 -1.006457
-23.046066 21.673652 -1.001126
-21.683353 20.644268 -0.947414
-21.537333 20.758670 -0.946582
-21.840865 21.311282 -0.965651
-21.409816 21.148677 -0.952313
-21.147711 21.147711 -0.946409
-20.872833 21.130565 -0.939892
-20.629418 21.142057 -0.934755
-20.341135 21.104136 -0.927543
-20.089981 21.101166 -0.921977
-19.766790 21.018458 -0.913046
-19.519393 21.012262 -0.907557
-19.301778 21.035384 -0.903423
-19.140522 21.118311 -0.901924
-18.923983 21.138625 -0.897815
-18.699885 21.147993 -0.893323
-18.473758 21.152401 -0.888704
-18.257368 21.165363 -0.884525
-18.037786 21.172090 -0.880165
-17.814839 21.172202 -0.875608
-17.578503 21.153447 -0.870356
-17.361991 21.155648 -0.866047
-17.161861 21.175416 -0.862529
-17.001086 21.242185 -0.860983
-16.844498 21.313294 -0.859660
-16.642205 21.325015 -0.855998
-16.416996 21.304680 -0.851122
-16.161301 21.241164 -0.844607
-15.986361 21.280954 -0.842273
-15.769742 21.263036 -0.837718
-15.543318 21.228747 -0.832594
-15.328625 21.207306 -0.828048
-15.131862 21.207971 -0.824433
-14.954191 21.233320 -0.821836
-14.759966 21.233101 -0.818307
-14.605370 21.288235 -0.816963
-14.407322 21.278276 -0.813173
-14.194292 21.243260 -0.808491
-13.993358 21.223301 -0.804448
-13.852078 21.292173 -0.803822
-13.642189 21.253717 -0.799195
-13.450396 21.240496 -0.795579
-13.284956 21.266826 -0.793497
-13.093539 21.249470 -0.789837
-12.916938 21.253770 -0.787036
-12.748641 21.269822 -0.784719
-12.551698 21.235655 -0.780602
-12.370662 21.225624 -0.777429
-12.208258 21.245557 -0.775401
-12.083689 21.330695 -0.775787
-11.976984 21.448141 -0.777371
-11.834566 21.501987 -0.776676
-11.688145 21.547900 -0.775730
-11.556634 21.620942 -0.775792
-10.920064 20.735039 -0.741586
-11.286750 21.754016 -0.775538
-11.152061 21.820910 -0.775469
-11.015423 21.883887 -0.775290
-10.879757 21.948681 -0.775206
-10.743433 22.012065 -0.775102
-10.606341 22.073770 -0.774968
-10.465500 22.127440 -0.774583
-10.328499 22.189021 -0.774506
-10.190835 22.249094 -0.774406
-10.054665 22.312404 -0.774447
-9.919942 22.379031 -0.774632
-9.888944 22.683781 -0.783066
-9.725060 22.686847 -0.781097
-9.572328 22.714424 -0.780010
-9.414806 22.729353 -0.778524
-9.273425 22.782420 -0.778378
-9.369613 23.429409 -0.798504
-9.209651 23.445662 -0.797117
-9.218614 23.898359 -0.810569
-8.717853 23.019854 -0.778944
-8.559086 23.026220 -0.777367
-8.453196 23.175790 -0.780651
-8.684716 24.272155 -0.815770
-9.851735 28.075675 -0.941555
-11.455741 33.299386 -1.114360
-11.247120 33.356936 -1.113956
-9.203223 27.858552 -0.928434
-10.449803 32.295989 -1.074162
-2.343935 7.398819 -0.245601
-2.290682 7.387872 -0.244767
-2.262592 7.458766 -0.246651
-8.805998 29.683955 -0.979801
-8.642679 29.802895 -0.981958
-8.249854 29.114963 -0.957606
-8.360713 30.211735 -0.991973
-8.938322 33.087429 -1.084572
-8.657518 32.847172 -1.074935
-8.479289 32.991031 -1.077920
-8.136591 32.483091 -1.059673
-5.622134 23.043803 -0.750602
-5.476509 23.060494 -0.750037
-5.346724 23.144807 -0.751698
-5.291606 23.564590 -0.764263
-5.123605 23.489743 -0.760802
-7.758118 36.646475 -1.185367
-4.902900 23.881758 -0.771492
-4.733297 23.795893 -0.767765
-7.315557 37.994727 -1.224413
-4.273315 22.951934 -0.738787
-5.217873 29.013335 -0.932846
-4.005010 23.081440 -0.741318
-3.523387 21.072581 -0.676091
-3.329949 20.695593 -0.663328
-3.186034 20.606546 -0.659835
-2.977438 20.072256 -0.642130
-2.852242 20.076221 -0.641684
-2.780599 21.459827 -0.684766
-2.645982 21.453053 -0.684018
-2.512671 21.454988 -0.683576
-2.381091 21.471020 -0.683608
-2.248774 21.480174 -0.683447
-1.972708 20.029241 -0.636885
-1.929856 20.908598 -0.664458
-1.845608 21.431936 -0.680716
-1.713563 21.436519 -0.680515
-1.581735 21.443052 -0.680401
-1.450239 21.453930 -0.680451
-1.299126 21.145884 -0.670416
-1.105464 19.997716 -0.633787
-0.981944 19.987930 -0.633274
-0.859350 19.995156 -0.633324
-0.736145 19.986458 -0.632893
-0.614419 20.020669 -0.633845
-0.492491 20.061851 -0.635041
-0.419506 22.787045 -0.721210
-0.279478 22.772736 -0.720689
-0.165400 26.955693 -0.853020
0.000000 26.708019 -0.845166
0.142008 23.143422 -0.732379
0.283458 23.097092 -0.730954
0.424128 23.038105 -0.729156
0.567201 23.105211 -0.731377
0.737309 24.025012 -0.760621
0.976873 26.522272 -0.839857
1.016887 23.660699 -0.749426
1.285006 26.156895 -0.828724
1.494014 27.026546 -0.856551
1.605051 26.125428 -0.828289
1.624015 24.024655 -0.761987
1.782446 24.164028 -0.766740
1.855651 23.214026 -0.736943
2.287760 26.566379 -0.843795
2.971530 32.194395 -1.023111
2.929911 29.747886 -0.945916
3.131327 29.910279 -0.951673
2.695081 24.302361 -0.773754
3.508272 29.956143 -0.954430
2.770983 22.466535 -0.716333
3.713751 28.661613 -0.914569
3.070631 22.608714 -0.722013
3.274874 23.051023 -0.736766
3.394793 22.885837 -0.732139
3.566569 23.067759 -0.738645
3.714748 23.087116 -0.739980
3.760461 22.490466 -0.721583
3.906925 22.516164 -0.723163
4.012032 22.308409 -0.717267
4.162451 22.356484 -0.719621
4.290803 22.285097 -0.718157
4.483613 22.540646 -0.727265
4.650345 22.651576 -0.731751
4.849843 22.908859 -0.741010
4.984305 22.851104 -0.740117
5.165615 23.003529 -0.746066
5.328201 23.064627 -0.749094
5.467201 23.021302 -0.748763
5.552960 22.760273 -0.741367
5.770798 23.038318 -0.751563
5.790655 22.530155 -0.736131
6.132607 23.267501 -0.761437
6.276799 23.235137 -0.761624
6.541750 23.638847 -0.776159
6.429059 22.689109 -0.746256
6.722361 23.180985 -0.763776
7.105412 23.951485 -0.790585
7.226874 23.823812 -0.787819
7.270851 23.449835 -0.776913
7.494882 23.658197 -0.785325
7.657300 23.665526 -0.787113
9.526122 28.835982 -0.961008
9.746744 28.907090 -0.965353
8.170062 23.748619 -0.794745
8.441425 24.056544 -0.806768
10.303725 28.796981 -0.967847
10.543722 28.907303 -0.973711
8.894739 23.929216 -0.807852
9.034202 23.855186 -0.807209
9.205136 23.863419 -0.809384
11.533646 29.362020 -0.998264
11.718740 29.303576 -0.998703
13.692804 33.639698 -1.149325
13.819387 33.362952 -1.142745
12.344306 29.292123 -1.005887
12.532946 29.237149 -1.006621
13.419765 30.782964 -1.062658
13.475731 30.400761 -1.052298
13.269406 29.446267 -1.022058
13.421115 29.301589 -1.019876
13.588198 29.191929 -1.018942
13.716621 29.001358 -1.015209
13.439916 27.970966 -0.982008
13.500913 27.661826 -0.974044
13.589347 27.414973 -0.968270
13.801274 27.418423 -0.971364
13.962026 27.319086 -0.970862
14.089115 27.155279 -0.968095
14.239464 27.037923 -0.967008
14.405012 26.949882 -0.967002
14.594245 26.905495 -0.968604
14.768713 26.832980 -0.969238
14.955221 26.781508 -0.970675
15.127977 26.704613 -0.971234
15.310781 26.644757 -0.972456
15.481663 26.563489 -0.972938
15.669845 26.511110 -0.974523
15.865461 26.469923 -0.976569
16.045151 26.400989 -0.977640
16.220386 26.324022 -0.978457
16.424800 26.293152 -0.981037
16.603038 26.219063 -0.982055
16.789463 26.156983 -0.983570
16.972845 26.089136 -0.984917
17.167907 26.038042 -0.986946
17.377228 26.006859 -0.989787
17.611621 26.010727 -0.994028
17.849061 26.016117 -0.998401
18.078946 26.007653 -1.002315
18.237676 25.895510 -1.002287
18.425547 25.824215 -1.003884
18.595803 25.727479 -1.004540
18.755342 25.615663 -1.004649
18.904753 25.490109 -1.004255
19.094661 25.418705 -1.006039
19.261425 25.315727 -1.006622
19.402875 25.179518 -1.005921
19.533516 25.029887 -1.004713
19.692688 24.917102 -1.005017
19.860799 24.815284 -1.005807
20.045997 24.734051 -1.007481
20.202874 24.617273 -1.007755
20.378904 24.523366 -1.009010
20.547070 24.419346 -1.009899
20.726332 24.327808 -1.011354
20.895855 24.224103 -1.012354
21.087811 24.145484 -1.014457
21.235328 24.015366 -1.014445
21.377061 23.878782 -1.014197
21.528571 23.753117 -1.014452
21.679315 23.626462 -1.014705
21.833454 23.503306 -1.015150
21.995199 23.387974 -1.015979
22.157525 23.272776 -1.016861
22.309316 23.146144 -1.017290
22.465217 23.023476 -1.017938
22.641079 22.920646 -1.019515
22.827798 22.827798 -1.021596
22.994956 22.714483 -1.022820
23.183863 22.621716 -1.025030
23.366506 22.521711 -1.026975
23.573846 22.444168 -1.030016
23.797008 22.379875 -1.033747
24.014637 22.308456 -1.037235
24.193254 22.199396 -1.039047
24.267188 21.994497 -1.036407
24.389994 21.834715 -1.035910
24.472331 21.639395 -1.033748
24.662880 21.539687 -1.036195
13.120184 11.317549 -0.548308
13.226327 11.268309 -0.549844
13.336295 11.221504 -0.551543
25.584084 21.260360 -1.052654
25.548591 20.967187 -1.045880
25.411863 20.595338 -1.035090
25.390530 20.321195 -1.029123
25.442490 20.107918 -1.026209
25.552932 19.941704 -1.025708
25.677596 19.786684 -1.025820
25.808713 19.636512 -1.026225
25.941330 19.487259 -1.026724
26.139051 19.386041 -1.029822
26.288069 19.247666 -1.031021
26.334381 19.034471 -1.028237
26.419762 18.850469 -1.027035
26.436894 18.618961 -1.023241
26.537964 18.447586 -1.022752
26.641942 18.278425 -1.022418
26.820125 18.159657 -1.024960
26.987051 18.032171 -1.027092
24.287303 16.013576 -0.920586
24.430084 15.893513 -0.922284
24.914051 15.991658 -0.936833
25.092587 15.889706 -0.939862
25.467643 15.909121 -0.950236
25.524454 15.727708 -0.948737
25.755071 15.652595 -0.953721
26.002027 15.585015 -0.959307
26.291038 15.539768 -0.966434
26.563538 15.481691 -0.972940
26.681167 15.331703 -0.973784
26.911911 15.245410 -0.978773
27.347231 15.271130 -0.991179
27.554370 15.165761 -0.995295
27.792130 15.075178 -1.000523
28.079779 15.008955 -1.007544
28.291904 14.899871 -1.011856
28.554785 14.815229 -1.017988
27.863956 14.240493 -0.990226
28.106417 14.147581 -0.995738
28.588249 14.170930 -1.009709
29.059255 14.182957 -1.023251
29.518355 14.183429 -1.036333
29.923497 14.152760 -1.047489
30.521788 14.207218 -1.065361
30.785163 14.100642 -1.071513
31.060452 13.996808 -1.078086
28.600302 12.677642 -0.989977
29.096555 12.684579 -1.004441
29.666699 12.717079 -1.021410
30.155129 12.707994 -1.035522
30.725109 12.726757 -1.052394
31.101328 12.659578 -1.062600
31.238951 12.492712 -1.064663
31.278339 12.286392 -1.063416
31.344078 12.090745 -1.063108
31.363060 11.877510 -1.061260
31.410803 11.675723 -1.060432
31.602221 11.526674 -1.064486
30.194542 10.803780 -1.014818
30.824747 10.816383 -1.033748
31.504339 10.838205 -1.054289
32.084002 10.817919 -1.071446
32.393222 10.701275 -1.079559
33.055137 10.695436 -1.099411
33.308843 10.552192 -1.105675
33.267807 10.315010 -1.102191
30.772519 9.334742 -1.017603
31.126468 9.233932 -1.027415
31.950185 9.265382 -1.052707
32.781601 9.288812 -1.078203
29.268628 8.099720 -0.961007
29.689836 8.020488 -0.973203
30.063713 7.923883 -0.983846
30.051614 7.723805 -0.981880
30.030637 7.522283 -0.979668
30.109541 7.346004 -0.980754
30.136333 7.156910 -0.980177
30.282712 6.995664 -0.983524
30.492884 6.847406 -0.988966
30.832572 6.725230 -0.998626
31.032042 6.569534 -1.003762
31.351540 6.436438 -1.012800
31.835955 6.332565 -1.027174
32.264338 6.212220 -1.039747
33.194809 6.180389 -1.068490
33.888801 6.094695 -1.089604
33.874029 5.877702 -1.087949
33.998372 5.684611 -1.090802
34.109299 5.488233 -1.093260
34.055819 5.265463 -1.090489
34.022254 5.046725 -1.088403
34.054618 4.838163 -1.088468
34.085737 4.629398 -1.088534
34.117362 4.420665 -1.088657
34.152044 4.212253 -1.088919
34.205146 4.005888 -1.089808
34.206935 3.793478 -1.089102
34.229158 3.583474 -1.089089
34.208436 3.369237 -1.087752
34.294619 3.165380 -1.089854
34.410916 2.963291 -1.092952
34.426098 2.751906 -1.092877
34.462983 2.542142 -1.093532
34.472010 2.330233 -1.093344
34.516811 2.120587 -1.094332
34.531987 1.908911 -1.094421
22.687610 1.114571 -0.718807
22.829887 0.981180 -0.723111
22.901125 0.843498 -0.725189
22.867741 0.701794 -0.723982
22.865120 0.561307 -0.723777
22.868743 0.421010 -0.723796
22.869058 0.280660 -0.723738
22.873900 0.140354 -0.723850
22.898431 -0.000000 -0.724613
22.905526 -0.140548 -0.724851
23.099088 -0.283483 -0.731018
22.674945 -0.417442 -0.717662
34.420264 -0.844970 -1.089545
33.338835 -1.023144 -1.055492
32.545477 -1.198721 -1.030589
32.451770 -1.394709 -1.027873
31.158532 -1.530721 -0.987190
30.132681 -1.665720 -0.954994
30.177875 -1.854019 -0.956769
32.120147 -2.171252 -1.018750
31.761875 -2.342897 -1.007824
30.127614 -2.408299 -0.956419
31.618457 -2.722819 -1.004258
31.732929 -2.928937 -1.008446
30.160835 -2.970583 -0.959047
30.633208 -3.207011 -0.974675
30.247519 -3.354387 -0.963040
29.991711 -3.512437 -0.955564
30.643655 -3.779534 -0.977056
29.597544 -3.835022 -0.944433
29.511587 -4.008154 -0.942458
30.117562 -4.278822 -0.962630
29.086738 -4.314610 -0.930511
29.095729 -4.498570 -0.931664
30.474290 -4.903355 -0.976752
27.074105 -4.526856 -0.868644
29.373509 -5.096787 -0.943404
29.442744 -5.295099 -0.946653
29.415052 -5.476653 -0.946825
27.618127 -5.317632 -0.890018
30.277477 -6.022565 -0.976891
30.218153 -6.203755 -0.976187
30.208615 -6.395213 -0.977128
20.327590 -4.433874 -0.658384
30.213646 -6.784701 -0.979910
26.533358 -6.129519 -0.861752
20.304847 -4.822086 -0.660411
30.670401 -7.482841 -0.999022
27.433824 -6.871815 -0.894954
29.983648 -7.706337 -0.979660
27.817157 -7.331759 -0.910326
35.520191 -9.595515 -1.164316
34.964789 -9.676060 -1.148035
34.414567 -9.751520 -1.131912
34.024274 -9.866857 -1.121045
33.698142 -9.996840 -1.112300
33.219679 -10.077080 -1.098527
33.056021 -10.249344 -1.095174
32.487479 -10.291986 -1.078410
33.241093 -10.755604 -1.105596
37.060328 -12.243079 -1.235099
36.340494 -12.253101 -1.213592
35.872077 -12.340805 -1.200455
35.082284 -12.310350 -1.176531
34.217802 -12.243325 -1.150037
33.467459 -12.207005 -1.127314
32.841065 -12.207366 -1.108717
32.275772 -12.223164 -1.092144
31.679831 -12.220259 -1.074496
31.089159 -12.212080 -1.056984
30.567864 -12.224339 -1.041791
30.075828 -12.242156 -1.027563
29.409690 -12.181892 -1.007338
29.013960 -12.227082 -0.996335
28.802563 -12.346654 -0.991658
28.633489 -12.482706 -0.988456
27.541036 -12.208102 -0.953311
27.168335 -12.242899 -0.942993
26.827191 -12.287757 -0.933752
26.471722 -12.322002 -0.923993
26.023241 -12.308076 -0.910958
25.702030 -12.349703 -0.902350
25.114419 -12.257600 -0.884344
24.694710 -12.240938 -0.872193
24.495973 -12.330237 -0.867830
24.026444 -12.279248 -0.853849
23.684263 -12.288230 -0.844352
23.401952 -12.324588 -0.836968
23.038062 -12.314101 -0.826640
22.833967 -12.385741 -0.822028
22.596503 -12.436981 -0.816211
22.052140 -12.314267 -0.799263
21.730583 -12.310223 -0.790331
21.486403 -12.346654 -0.784191
21.149954 -12.326560 -0.774657
20.882947 -12.343223 -0.767637
20.398875 -12.226615 -0.752587
20.330418 -12.355773 -0.752844
20.093746 -12.381403 -0.746879
19.690043 -12.299971 -0.734665
19.534857 -12.370312 -0.731693
19.335986 -12.411249 -0.727083
19.066524 -12.404134 -0.719799
18.813474 -12.404464 -0.713106
18.646593 -12.459255 -0.709665
18.378204 -12.443710 -0.702343
18.047372 -12.381888 -0.692591
17.782905 -12.361599 -0.685339
17.602020 -12.396741 -0.681287
17.437565 -12.441682 -0.677864
17.236815 -12.458757 -0.673019
16.973828 -12.427941 -0.665715
16.773809 -12.440304 -0.660852
16.457684 -12.363096 -0.651374
16.381438 -12.463787 -0.651371
16.238352 -12.512977 -0.648722
16.075913 -12.545766 -0.645296
15.632953 -12.355164 -0.630546
15.603685 -12.488338 -0.632445
15.366914 -12.454293 -0.625934
15.118373 -12.407328 -0.618899
15.051222 -12.507557 -0.619280
14.887011 -12.526316 -0.615675
14.668692 -12.497147 -0.609806
14.593230 -12.588207 -0.609868
14.408731 -12.584075 -0.605373
14.266868 -12.615324 -0.602654
14.056643 -12.583963 -0.597024
13.878559 -12.578792 -0.592728
13.666532 -12.540221 -0.586947
13.510836 -12.550924 -0.583557
13.369769 -12.573587 -0.580786
13.215636 -12.582332 -0.577433
13.019895 -12.549172 -0.572234
12.789272 -12.479166 -0.565453
12.613005 -12.459162 -0.561029
12.495798 -12.495798 -0.559216
12.374817 -12.527618 -0.557231
12.224182 -12.527952 -0.553899
12.105080 -12.559145 -0.551984
11.902826 -12.501929 -0.546249
11.860822 -12.611871 -0.547862
11.611082 -12.499113 -0.539859
11.406943 -12.431468 -0.533904
11.243452 -12.405238 -0.529805
11.221497 -12.534729 -0.532384
11.129378 -12.586388 -0.531668
11.029581 -12.628839 -0.530592
10.742155 -12.453143 -0.520431
10.680704 -12.536618 -0.521171
10.592449 -12.588690 -0.520624
10.471378 -12.600944 -0.518464
10.236481 -12.473188 -0.510614
10.160921 -12.537202 -0.510672
10.071264 -12.583646 -0.510037
9.868098 -12.486076 -0.503619
9.765086 -12.512801 -0.502271
9.728329 -12.624657 -0.504355
9.517703 -12.509333 -0.497405
9.451464 -12.581735 -0.497969
9.340805 -12.594617 -0.496201
9.196230 -12.560024 -0.492606
9.116454 -12.612706 -0.492469
8.992412 -12.603261 -0.489936
8.869718 -12.594032 -0.487452
8.769787 -12.615867 -0.486206
8.652816 -12.612018 -0.484002
8.595092 -12.694152 -0.485121
8.422995 -12.605903 -0.479764
8.307645 -12.599952 -0.477589
8.151675 -12.530025 -0.473033
8.093595 -12.609339 -0.474144
7.974966 -12.593847 -0.471712
7.792764 -12.474814 -0.465454
7.883907 -12.794771 -0.475578
7.651756 -12.590342 -0.466226
7.568984 -12.628087 -0.465895
7.508637 -12.703527 -0.466970
7.511956 -12.889039 -0.472086
7.457698 -12.978342 -0.473671
7.313127 -12.909475 -0.469511
7.955917 -14.247295 -0.516382
7.046360 -12.802390 -0.462437
6.983579 -12.874708 -0.463493
6.762227 -12.651238 -0.453945
6.627786 -12.584854 -0.450096
6.540239 -12.605618 -0.449394
6.472787 -12.665113 -0.450091
6.527832 -12.968574 -0.459443
6.364633 -12.839928 -0.453494
6.344413 -12.998976 -0.457728
6.274374 -13.058140 -0.458447
6.210030 -13.130005 -0.459623
5.872423 -12.615901 -0.440357
5.780661 -12.620602 -0.439275
5.704947 -12.659902 -0.439416
5.659445 -12.767502 -0.441937
5.584899 -12.810937 -0.442246
5.539899 -12.923607 -0.444954
5.429505 -12.883813 -0.442428
5.160055 -12.457474 -0.426692
5.113710 -12.563071 -0.429227
5.023807 -12.562400 -0.428142
5.138031 -13.080250 -0.444708
4.857758 -12.593265 -0.427130
4.708935 -12.434138 -0.420745
4.599955 -12.375104 -0.417785
4.543515 -12.456773 -0.419593
4.495561 -12.564251 -0.422276
4.330790 -12.341974 -0.413904
4.273790 -12.422991 -0.415734
4.206558 -12.475894 -0.416633
4.087993 -12.374531 -0.412402
4.014998 -12.408687 -0.412712
3.920583 -12.375636 -0.410805
3.880856 -12.516474 -0.414682
3.766638 -12.416941 -0.410610
3.707494 -12.497516 -0.412515
3.665149 -12.638680 -0.416424
3.631128 -12.814792 -0.421485
3.456066 -12.488616 -0.410052
3.433667 -12.710574 -0.416640
3.449174 -13.086386 -0.428257
3.307295 -12.867952 -0.420436
3.154307 -12.592701 -0.410803
3.074285 -12.600768 -0.410443
3.001793 -12.639957 -0.411112
2.889105 -12.506309 -0.406181
2.845148 -12.670019 -0.410923
2.717151 -12.457083 -0.403468
2.651520 -12.524800 -0.405127
2.555336 -12.446904 -0.402093
2.479961 -12.467607 -0.402262
2.411834 -12.526316 -0.403672
2.325815 -12.491933 -0.402096
2.256140 -12.544986 -0.403351
2.178379 -12.554305 -0.403213
2.117438 -12.663919 -0.406308
2.034666 -12.645425 -0.405307
1.949421 -12.608415 -0.403730
1.887519 -12.724617 -0.407072
1.808235 -12.727712 -0.406808
1.727797 -12.721572 -0.406266
1.647863 -12.717707 -0.405812
1.570788 -12.735614 -0.406068
1.489797 -12.720955 -0.405301
1.411991 -12.732349 -0.405381
1.338200 -12.782419 -0.406706
1.258359 -12.776332 -0.406259
1.176100 -12.742200 -0.404936
1.094293 -12.707365 -0.403608
1.017869 -12.733454 -0.404231
0.940017 -12.743506 -0.404359
0.861424 -12.743366 -0.404180
0.780604 -12.705904 -0.402832
0.703762 -12.730975 -0.403482
0.621995 -12.661008 -0.401136
0.548136 -12.753905 -0.403965
0.469308 -12.741805 -0.403483
0.390740 -12.732160 -0.403094
0.312518 -12.730553 -0.402975
0.234688 -12.747975 -0.403474
0.156338 -12.738914 -0.403149
0.077828 -12.683819 -0.401383
0.000000 -12.750118 -0.403473
-0.078297 -12.760229 -0.403801
-0.156605 -12.760667 -0.403837
-0.234652 -12.745979 -0.403410
-0.313494 -12.770311 -0.404234
-0.392209 -12.780018 -0.404610
-0.470024 -12.761220 -0.404098
-0.551512 -12.832457 -0.406453
-0.628271 -12.788748 -0.405183
-0.705973 -12.770971 -0.404750
-0.785141 -12.779739 -0.405173
-0.862736 -12.762774 -0.404795
-0.941322 -12.761193 -0.404921
-1.020599 -12.767608 -0.405315
-1.100765 -12.782524 -0.405996
-1.181937 -12.805433 -0.406946
-1.258717 -12.779966 -0.406374
-1.339252 -12.792468 -0.407026
-1.414551 -12.755434 -0.406116
-1.497942 -12.790505 -0.407517
-1.577829 -12.792699 -0.407888
-1.655560 -12.777117 -0.407707
-1.932517 -14.228906 -0.454403
-2.011327 -14.157228 -0.452499
-2.105203 -14.192125 -0.454019
-2.260930 -14.623181 -0.468244
-2.260102 -14.046508 -0.450214
-2.230291 -13.338864 -0.427963
-2.215639 -12.769041 -0.410110
-2.303937 -12.810757 -0.411896
-2.377009 -12.766895 -0.410947
-2.458571 -12.769056 -0.411494
-2.525926 -12.698688 -0.409718
-2.641684 -12.867499 -0.415680
-2.696171 -12.735715 -0.411949
-2.782843 -12.758257 -0.413223
-2.863554 -12.751985 -0.413581
-2.952163 -12.779273 -0.415046
-3.030532 -12.760972 -0.415048
-3.088377 -12.658531 -0.412324
-3.163990 -12.631356 -0.412064
-3.268268 -12.716107 -0.415475
-3.371299 -12.790923 -0.418588
-3.444612 -12.751091 -0.417968
-3.515869 -12.704718 -0.417147
-3.597612 -12.696511 -0.417595
-3.676886 -12.679153 -0.417758
-3.776770 -12.731037 -0.420223
-3.867585 -12.749720 -0.421615
-3.946443 -12.728007 -0.421690
-4.021511 -12.694222 -0.421380
-4.142921 -12.804042 -0.425861
-4.225199 -12.789861 -0.426244
-4.319395 -12.810548 -0.427809
-4.403371 -12.799656 -0.428339
-4.483616 -12.777500 -0.428510
-4.586403 -12.818137 -0.430809
-4.680611 -12.832645 -0.432254
-4.749509 -12.777442 -0.431368
-4.851726 -12.811185 -0.433504
-4.944747 -12.818775 -0.434779
-5.039301 -12.828906 -0.436163
-5.143180 -12.860901 -0.438316
-5.202568 -12.781371 -0.436685
-5.281747 -12.751265 -0.436755
-5.363547 -12.727299 -0.437053
-5.487221 -12.800719 -0.440723
-5.590318 -12.823365 -0.442675
-5.669868 -12.791017 -0.442751
-5.747416 -12.754147 -0.442687
-5.857121 -12.787533 -0.445085
-5.953401 -12.789867 -0.446429
-6.046102 -12.783408 -0.447490
-6.140200 -12.778899 -0.448643
-6.250046 -12.805629 -0.450919
-6.345171 -12.800666 -0.452107
-6.465752 -12.845243 -0.455074
-6.558241 -12.832319 -0.456033
-6.658993 -12.834503 -0.457554
-6.703256 -12.728155 -0.455221
-6.816861 -12.753450 -0.457613
-7.001835 -12.908365 -0.464704
-7.072100 -12.849158 -0.464126
-7.152880 -12.809234 -0.464261
-7.256821 -12.810081 -0.465897
-7.328248 -12.753065 -0.465450
-7.511921 -12.888980 -0.472083
-7.587274 -12.836570 -0.471860
-7.650226 -12.763630 -0.470896
-7.813248 -12.856064 -0.476066
-7.941575 -12.888361 -0.479057
-8.005700 -12.815686 -0.478173
-8.114167 -12.813669 -0.479946
-8.319073 -12.960621 -0.487353
-8.350200 -12.835179 -0.484554
-8.485018 -12.868969 -0.487785
-8.626103 -12.909876 -0.491333
-8.751118 -12.924588 -0.493927
-8.876517 -12.938076 -0.496515
-8.999309 -12.946048 -0.498931
-9.107165 -12.931180 -0.500502
-9.198219 -12.891708 -0.501149
-9.335515 -12.915778 -0.504302
-9.393045 -12.828829 -0.503148
-9.678798 -13.050348 -0.514156
-9.777138 -13.015271 -0.515128
-9.878337 -12.983323 -0.516252
-10.014034 -12.995422 -0.519167
-10.140063 -12.993289 -0.521558
-10.264214 -12.987281 -0.523835
-10.386651 -12.977710 -0.526009
-10.516352 -12.975756 -0.528536
-10.654846 -12.982967 -0.531482
-10.756555 -12.944118 -0.532584
-10.903824 -12.958746 -0.535929
-11.068581 -12.991893 -0.540098
-11.193848 -12.976780 -0.542315
-11.341689 -12.986202 -0.545607
-11.482111 -12.985300 -0.548519
-11.620261 -12.980160 -0.551303
-11.765396 -12.981114 -0.554399
-11.936756 -13.008866 -0.558702
-12.093806 -13.018756 -0.562303
-12.207618 -12.980626 -0.563881
-12.358604 -12.980648 -0.567166
-12.537719 -13.008012 -0.571712
-12.688887 -13.004205 -0.574956
-12.848417 -13.007066 -0.578557
-13.008454 -13.008454 -0.582158
-13.167399 -13.006794 -0.585689
-13.344527 -13.020958 -0.590002
-13.528257 -13.039155 -0.594577
-13.721767 -13.064208 -0.599547
-13.845739 -13.021213 -0.601462
-14.011842 -13.016336 -0.605197
-14.225385 -13.053017 -0.610949
-14.368832 -13.023150 -0.613666
-14.575382 -13.048355 -0.619056
-14.738960 -13.032767 -0.622596
-14.921983 -13.032332 -0.626937
-15.098699 -13.024227 -0.630992
-15.292772 -13.028838 -0.635750
-15.523478 -13.061856 -0.641997
-15.654261 -13.008682 -0.644092
-15.837225 -12.997275 -0.648327
-16.079863 -13.032111 -0.654974
-16.265159 -13.017746 -0.659255
-16.487580 -13.030600 -0.665017
-16.605362 -12.958951 -0.666548
-16.817720 -12.959427 -0.671868
-17.017934 -12.948064 -0.676680
-17.293273 -12.990795 -0.684445
-17.570436 -13.031123 -0.692237
-17.740069 -12.988969 -0.695767
-17.996255 -13.007680 -0.702672
-18.309560 -13.063850 -0.711761
-18.536746 -13.055050 -0.717465
-18.762691 -13.042687 -0.723099
-19.018373 -13.048069 -0.729854
-19.247452 -13.032271 -0.735562
-19.479415 -13.015729 -0.741361
-19.864886 -13.097702 -0.752959
-20.118870 -13.088761 -0.759527
-20.272915 -13.012638 -0.762314
-20.524791 -12.997181 -0.768772
-20.846428 -13.022342 -0.777812
-21.119882 -13.013689 -0.785020
-21.365007 -12.984542 -0.791155
-21.665377 -12.985727 -0.799313
-21.965190 -12.982901 -0.807419
-22.310275 -13.002816 -0.817156
-22.741725 -13.067996 -0.830006
-23.056092 -13.061115 -0.838539
-23.186335 -12.947620 -0.840371
-23.711527 -13.050684 -0.856487
-24.065763 -13.053899 -0.866373
-24.379922 -13.031340 -0.874788
-24.471426 -12.887824 -0.875217
-25.226370 -13.088330 -0.899329
-25.341725 -12.951451 -0.900591
-25.533058 -12.852261 -0.904571
-25.811998 -12.794768 -0.911654
-25.951485 -12.666147 -0.913819
-26.199655 -12.588809 -0.919820
-26.996244 -12.768273 -0.945019
-27.296786 -12.706051 -0.952792
-27.595389 -12.639618 -0.960490
-27.973092 -12.605548 -0.970926
-28.410269 -12.593406 -0.983399
-28.954452 -12.622629 -0.999536
-29.540370 -12.662926 -1.017061
-30.135176 -12.699585 -1.034837
-30.598269 -12.674218 -1.048050
-30.925105 -12.587848 -1.056579
-31.641598 -12.653735 -1.078385
-32.140255 -12.624959 -1.092719
-32.890609 -12.687308 -1.115563
-33.315347 -12.616861 -1.127321
-34.064549 -12.662148 -1.150022
-34.715843 -12.662344 -1.169365
-35.216113 -12.600527 -1.183589
-36.032975 -12.643947 -1.208413
-36.955385 -12.713488 -1.236708
-37.772889 -12.736068 -1.261427
-39.289399 -12.979464 -1.309386
-39.297848 -12.715349 -1.307043
-39.426953 -12.490401 -1.308763
-40.513797 -12.561700 -1.342257
-41.901178 -12.710583 -1.385612
-42.744790 -12.680605 -1.410910
-43.890984 -12.728150 -1.446138
-44.729560 -12.674319 -1.471177
-45.352164 -12.550634 -1.489094
-46.792580 -12.640667 -1.533813
-47.885851 -12.621258 -1.567082
-48.909595 -12.570646 -1.598030
-50.498037 -12.649100 -1.647362
-52.378867 -12.779185 -1.706129
-53.483519 -12.701504 -1.739539
-54.319545 -12.548457 -1.764193
-48.413177 -5.971196 -1.543627
-53.092374 12.264966 -2.140943
-43.384623 11.150629 -1.759987
-51.891366 13.676990 -2.108446
-53.608821 14.482024 -2.181799
-52.642148 14.568044 -2.146054
-51.629392 14.629417 -2.108387
-50.715602 14.707252 -2.074717
-49.974360 14.825319 -2.048076
-49.023718 14.871182 -2.012818
-48.370098 14.997623 -1.989723
-47.669525 15.101635 -1.964679
-47.165680 15.261092 -1.947736
-46.528348 15.370890 -1.925276
-46.184962 15.572408 -1.914985
-45.353365 15.602583 -1.884438
-49.299927 18.670385 -2.071251
-49.057543 19.270211 -2.070847
-47.951366 19.518269 -2.034111
-47.811812 19.804301 -2.033308
-49.359887 20.801276 -2.104531
-48.959593 20.987269 -2.092916
-48.487028 21.137812 -2.078220
-45.380232 20.115673 -1.950312
-44.964697 20.262495 -1.937760
-46.405819 21.255428 -2.005449
-45.756294 21.298544 -1.982989
-42.703419 20.197213 -1.856020
-42.279880 20.315280 -1.842995
-42.059092 20.527790 -1.838826
-41.939643 20.789091 -1.839146
-41.893171 21.087250 -1.842748
-41.707665 21.315628 -1.840307
-42.641902 22.124121 -1.887483
-42.382048 22.320415 -1.882008
