-1.731351 -5.032665 -1.639850
-1.764247 -5.027788 -1.641757
-1.793045 -5.011225 -1.639910
-1.825699 -5.005445 -1.641654
-1.860259 -5.004591 -1.645087
-1.890975 -4.993197 -1.645124
-1.918088 -4.972456 -1.642138
-1.948011 -4.959190 -1.641673
-1.984096 -4.961379 -1.646397
-2.013691 -4.947121 -1.645735
-2.043224 -4.932780 -1.645104
-2.075706 -4.925497 -1.646892
-2.109077 -4.920105 -1.649385
-2.140816 -4.910718 -1.650610
-2.173777 -4.903962 -1.652792
-2.207756 -4.899252 -1.655739
-2.237883 -4.885848 -1.655818
-2.272700 -4.882509 -1.659382
-2.303374 -4.870076 -1.659928
-2.339694 -4.869338 -1.664539
-2.368622 -4.853036 -1.663903
-2.401924 -4.845610 -1.666379
-2.425610 -4.818859 -1.662266
-2.456892 -4.807328 -1.663458
-2.494355 -4.807605 -1.668818
-2.525527 -4.795475 -1.669955
-2.550453 -4.771562 -1.667046
-2.583073 -4.762073 -1.669237
-2.613293 -4.748039 -1.669907
-2.643525 -4.733970 -1.670633
-2.666634 -4.707267 -1.666952
-2.701297 -4.700963 -1.670557
-2.728163 -4.680992 -1.669378
-2.754976 -4.661021 -1.668253
-2.789333 -4.653720 -1.671734
-2.812567 -4.627849 -1.668609
-2.842026 -4.612317 -1.669265
-2.874371 -4.601351 -1.671648
-2.899775 -4.579246 -1.670050
-2.930787 -4.565992 -1.671743
-2.955594 -4.543074 -1.669961
-2.982279 -4.523132 -1.669325
-3.011044 -4.506346 -1.669917
-3.045311 -4.497641 -1.673585
-3.068466 -4.472480 -1.671197
-3.096785 -4.454911 -1.671701
-3.124062 -4.435828 -1.671701
-3.151248 -4.416613 -1.671716
-3.178345 -4.397273 -1.671746
-3.213093 -4.388377 -1.675827
-3.235236 -4.362211 -1.673385
-3.258757 -4.338039 -1.671751
-3.291016 -4.325457 -1.674653
-3.318627 -4.306652 -1.675224
-3.345981 -4.287478 -1.675721
-3.367913 -4.261411 -1.673578
-3.397511 -4.245056 -1.675311
-3.424678 -4.225589 -1.675890
-3.454017 -4.208732 -1.677578
-3.474931 -4.181629 -1.675243
-3.502893 -4.163044 -1.676376
-3.534403 -4.148552 -1.679242
-3.556374 -4.122826 -1.677630
-3.588903 -4.109284 -1.681049
-3.609211 -4.081713 -1.678798
-3.636408 -4.061971 -1.679824
-3.667963 -4.046974 -1.682898
-3.690153 -4.021587 -1.681725
-3.712078 -3.995983 -1.680511
-3.744336 -3.981434 -1.684023
-3.769967 -3.959720 -1.684591
-3.796894 -3.939317 -1.685791
-3.822057 -3.917034 -1.686260
-3.845964 -3.893453 -1.686236
-3.864809 -3.864809 -1.684069
-3.895210 -3.847699 -1.686997
-3.922695 -3.827580 -1.688697
-3.942189 -3.799663 -1.687020
-3.973486 -3.783073 -1.690448
-3.995240 -3.757320 -1.689863
-4.022365 -3.736586 -1.691606
-4.042463 -3.709308 -1.690455
-4.077935 -3.696025 -1.695772
-4.096173 -3.667027 -1.693968
-4.117415 -3.640779 -1.693482
-4.139719 -3.615484 -1.693499
-4.164398 -3.592235 -1.694546
-4.187967 -3.567982 -1.695196
-4.215775 -3.547262 -1.697610
-4.228450 -3.513840 -1.694000
-4.257146 -3.493749 -1.696876
-4.275808 -3.465378 -1.695807
-4.301779 -3.442909 -1.697696
-4.322171 -3.415934 -1.697441
-4.344796 -3.390712 -1.698123
-4.373319 -3.370000 -1.701157
-4.389452 -3.339706 -1.699429
-4.409798 -3.312662 -1.699405
-4.419259 -3.277546 -1.695269
-4.449953 -3.258178 -1.699342
-4.471510 -3.232004 -1.699969
-4.488294 -3.202392 -1.698847
-4.509056 -3.175636 -1.699299
-4.527293 -3.147100 -1.698862
-4.542910 -3.116786 -1.697514
-4.565461 -3.091231 -1.698821
-4.585551 -3.063967 -1.699269
-4.603169 -3.035051 -1.698864
-4.629448 -3.011787 -1.701710
-4.641578 -2.979304 -1.699417
-4.667799 -2.955851 -1.702345
-4.674535 -2.920087 -1.698235
-4.705136 -2.899220 -1.702857
-4.718377 -2.867585 -1.701250
-4.737779 -2.839715 -1.701930
-4.756396 -2.811349 -1.702389
-4.768638 -2.779245 -1.700635
-4.790490 -2.752742 -1.702372
-4.815807 -2.728121 -1.705388
-4.828432 -2.696273 -1.703968
-4.848350 -2.668503 -1.705187
-4.864840 -2.638816 -1.705260
-4.880689 -2.608783 -1.705172
-4.900543 -2.580861 -1.706544
-4.911149 -2.548077 -1.704760
-4.934948 -2.522115 -1.707617
-4.947021 -2.490121 -1.706476
-4.962029 -2.459632 -1.706414
-4.975098 -2.428197 -1.705753
-4.998843 -2.401920 -1.708809
-5.011892 -2.370448 -1.708265
-5.020948 -2.337140 -1.706432
-5.034948 -2.306176 -1.706349
-5.047294 -2.274468 -1.705771
-5.057706 -2.241927 -1.704608
-5.087545 -2.217904 -1.710046
-5.086871 -2.180564 -1.705290
-5.302323 -1.715638 -1.717133
-5.310233 -1.682274 -1.716319
-5.313348 -1.647456 -1.714027
-5.326690 -1.615834 -1.715100
-5.346547 -1.586099 -1.718328
-5.350140 -1.551512 -1.716390
-5.366796 -1.520705 -1.718708
-5.376742 -1.487945 -1.718937
-5.390629 -1.456238 -1.720487
-5.394446 -1.421812 -1.718889
-5.404397 -1.389027 -1.719311
-5.415002 -1.356388 -1.720005
-5.438236 -1.326799 -1.724767
-5.446072 -1.293357 -1.724702
-5.450007 -1.259016 -1.723470
-5.461816 -1.226492 -1.724792
-5.457583 -1.190413 -1.721116
-5.475679 -1.159210 -1.724547
-5.488679 -1.126820 -1.726431
-5.495897 -1.093202 -1.726559
-5.504099 -1.059767 -1.727061
-5.514059 -1.026637 -1.728177
-5.511091 -0.991136 -1.725308
-5.526569 -0.958951 -1.728279
-5.539592 -0.926233 -1.730542
-5.543354 -0.891933 -1.729975
-5.538935 -0.856390 -1.726923
-5.552214 -0.823593 -1.729455
-5.566289 -0.790806 -1.732295
-5.570775 -0.756602 -1.732214
-5.573799 -0.722210 -1.731744
-5.583991 -0.688720 -1.733564
-5.581954 -0.653723 -1.731654
-5.587787 -0.619674 -1.732252
-5.589759 -0.585196 -1.731717
-5.597552 -0.551311 -1.733051
-5.609611 -0.517765 -1.735768
-5.607268 -0.482869 -1.734094
-5.611836 -0.448591 -1.734622
-5.608830 -0.413732 -1.732876
-5.617313 -0.379718 -1.734744
-5.619435 -0.345238 -1.734713
-5.618992 -0.310615 -1.733955
-5.625173 -0.276347 -1.735307
-5.630233 -0.241976 -1.736377
-5.625861 -0.207213 -1.734604
-5.629198 -0.172756 -1.735273
-5.637643 -0.138396 -1.737582
-5.628689 -0.103623 -1.734593
-5.625780 -0.069042 -1.733534
-5.614671 -0.034452 -1.730013
-5.464360 0.000000 -1.729461
-5.468352 0.033554 -1.730758
-5.458707 0.066992 -1.727803
-5.465608 0.100621 -1.730150
-5.458751 0.134005 -1.728207
-5.466036 0.167749 -1.730807
-5.449219 0.200707 -1.725839
-5.457423 0.234549 -1.728861
-5.452730 0.267875 -1.727862
-5.443150 0.300895 -1.725379
-5.454491 0.335104 -1.729593
-5.453599 0.368651 -1.729995
-5.449644 0.401990 -1.729490
-5.446900 0.435407 -1.729435
-5.440862 0.468539 -1.728398
-5.445670 0.502633 -1.730872
-5.438093 0.535605 -1.729476
-5.430840 0.568558 -1.728246
-5.429178 0.602085 -1.728861
-5.433296 0.636313 -1.731383
-5.425499 0.669172 -1.730174
-5.420777 0.702383 -1.730010
-5.418820 0.735964 -1.730794
-5.410272 0.768641 -1.729537
-5.410736 0.802607 -1.731228
-5.398215 0.834633 -1.728827
-5.395449 0.868135 -1.729615
-5.402527 0.903316 -1.733628
-5.397727 0.936595 -1.733900
-5.393097 0.969916 -1.734291
-5.386871 1.002957 -1.734236
-5.385066 1.036848 -1.735670
-5.380123 1.070173 -1.736161
-5.363686 1.101159 -1.733004
-5.365155 1.135812 -1.735698
-5.356039 1.168264 -1.735035
-5.350610 1.201520 -1.735632
-5.342955 1.234286 -1.735573
-5.339017 1.267933 -1.736788
-5.325429 1.299277 -1.734929
-5.317536 1.331973 -1.734987
-5.326128 1.368911 -1.740499
-5.311917 1.400060 -1.738629
-5.317621 1.436516 -1.743349
-5.319710 1.472162 -1.746962
-5.271913 1.493820 -1.734243
-5.270068 1.528292 -1.736688
-5.272066 1.564003 -1.740477
-5.098808 2.039055 -1.738023
-5.112774 2.081119 -1.747103
-5.090783 2.108671 -1.743977
-5.070388 2.136766 -1.741449
-5.050484 2.164966 -1.739143
-5.042472 2.198255 -1.740996
-5.032395 2.230707 -1.742210
-5.026986 2.265317 -1.745117
-5.001358 2.290790 -1.741067
-4.978635 2.317444 -1.738074
-4.986658 2.358514 -1.745894
-4.982027 2.393840 -1.749382
-4.962322 2.421961 -1.747649
-4.928769 2.443145 -1.741079
-4.908191 2.470576 -1.739132
-4.896566 2.502499 -1.740421
-4.878947 2.531370 -1.739647
-4.870650 2.565118 -1.742268
-4.851015 2.592922 -1.740903
-4.838211 2.624372 -1.742054
-4.818994 2.652346 -1.740962
-4.834353 2.699580 -1.752462
-4.820462 2.730758 -1.753467
-4.805374 2.761295 -1.754109
-4.775356 2.783160 -1.749352
-4.776860 2.823445 -1.756217
-4.747507 2.845546 -1.751811
-4.715235 2.865675 -1.746358
-4.707449 2.900645 -1.750034
-4.702403 2.937496 -1.754826
-4.674674 2.960205 -1.751223
-4.651923 2.985944 -1.749531
-4.639980 3.018638 -1.751973
-4.624639 3.049206 -1.753211
-4.605247 3.077127 -1.752985
-4.597752 3.113095 -1.757370
-4.601519 3.156997 -1.766181
-4.560952 3.170497 -1.758044
-4.561261 3.212402 -1.765728
-4.555411 3.250281 -1.771150
-4.532547 3.276121 -1.770043
-4.526115 3.313943 -1.775439
-4.497967 3.335919 -1.772393
-4.483499 3.368028 -1.774802
-4.440302 3.378395 -1.765875
-4.420997 3.406739 -1.766478
-4.407276 3.439472 -1.769395
-4.391664 3.470856 -1.771644
-4.397245 3.519315 -1.782573
-4.379921 3.549757 -1.784347
-4.349403 3.569463 -1.780803
-4.333012 3.600731 -1.783105
-4.286657 3.606904 -1.773103
-4.275794 3.642808 -1.777822
-4.247652 3.664050 -1.775436
-4.223699 3.688829 -1.774851
-4.203795 3.717160 -1.776038
-4.208939 3.767979 -1.787946
-4.189877 3.797483 -1.789713
-4.145843 3.804169 -1.780841
-4.122746 3.829836 -1.780980
-4.106817 3.862252 -1.784303
-4.079303 3.883819 -1.782670
-4.063426 3.916517 -1.786200
-4.037025 3.939138 -1.785185
-4.013906 3.964948 -1.785687
-4.016280 4.016280 -1.797673
-3.967285 4.016272 -1.786740
-3.945725 4.043776 -1.788171
-3.923224 4.070385 -1.789259
-3.919386 4.116660 -1.798994
-3.880469 4.126187 -1.792719
-3.854171 4.148943 -1.792297
-3.831298 4.175410 -1.793541
-3.804227 4.197317 -1.792891
-3.781813 4.224392 -1.794510
-3.762415 4.254974 -1.797660
-3.734092 4.275525 -1.796629
-3.711039 4.302126 -1.798204
-3.687319 4.328039 -1.799545
-3.675115 4.367723 -1.806635
-3.630306 4.368603 -1.797751
-3.616381 4.406574 -1.804211
-3.582678 4.420540 -1.800895
-3.559909 4.447965 -1.803135
-3.532504 4.469667 -1.803111
-3.509807 4.497402 -1.805578
-3.489068 4.527837 -1.809168
-3.474048 4.566020 -1.815872
-3.447143 4.588817 -1.816493
-3.419993 4.611327 -1.817062
-3.380234 4.616654 -1.810954
-3.348482 4.632658 -1.809138
-3.327961 4.664284 -1.813480
-3.299230 4.684546 -1.813453
-3.268920 4.702538 -1.812619
-3.244517 4.729086 -1.815144
-3.233794 4.776013 -1.825506
-3.187531 4.770477 -1.815879
-3.160328 4.793173 -1.817103
-3.130484 4.811899 -1.816886
-3.105471 4.838140 -1.819565
-3.074463 4.855107 -1.818817
-3.060663 4.899571 -1.828404
-3.018522 4.898751 -1.821152
-2.983521 4.909142 -1.818175
-2.963441 4.944202 -1.824391
-2.931694 4.960001 -1.823549
-2.906215 4.986493 -1.826698
-2.874667 5.002672 -1.826129
-2.846603 5.024956 -1.827853
-2.829097 5.066289 -1.836539
-2.791221 5.071314 -1.832117
-2.770838 5.108230 -1.839277
-2.728540 5.104739 -1.831957
-2.695770 5.118733 -1.831009
-2.671115 5.148292 -1.835685
-2.634227 5.154315 -1.832035
-2.606186 5.177602 -1.834593
-2.578448 5.201727 -1.837501
-2.546517 5.217522 -1.837526
-2.529404 5.264161 -1.848451
-2.496299 5.277982 -1.847890
-2.452440 5.268650 -1.839320
-2.419321 5.281972 -1.838754
-2.387608 5.298365 -1.839326
-2.355856 5.314726 -1.839953
-2.339822 5.367208 -1.853117
-2.289631 5.341304 -1.839287
-2.260507 5.364015 -1.842297
-2.240194 5.408308 -1.852754
-2.204484 5.415850 -1.850669
-2.160093 5.401472 -1.841191
-2.131636 5.426657 -1.845283
-2.107470 5.463410 -1.853349
-2.062380 5.445800 -1.843047
-2.032339 5.467533 -1.846147
-1.998570 5.479398 -1.845978
-1.966917 5.497164 -1.847863
-1.931283 5.503809 -1.846078
-1.903438 5.532885 -1.851878
-1.865444 5.532570 -1.847907
-1.831406 5.543744 -1.847851
-1.799000 5.559959 -1.849542
-1.763815 5.567623 -1.848456
-1.739104 5.608932 -1.858593
-1.692979 5.581004 -1.845861
-1.669740 5.628492 -1.858144
-1.629280 5.618310 -1.851447
-1.600443 5.648200 -1.858026
-1.565715 5.657767 -1.857978
-1.530508 5.665556 -1.857417
-1.498705 5.686183 -1.861129
-1.455109 5.661507 -1.850096
-1.424096 5.685310 -1.854983
-1.390065 5.697549 -1.856159
-1.359967 5.726552 -1.862854
-1.317520 5.703260 -1.852612
-1.284524 5.720247 -1.855535
-1.247929 5.721269 -1.853348
-1.212235 5.726147 -1.852484
-1.179857 5.747019 -1.856859
-1.151580 5.789382 -1.868228
-1.109299 5.761356 -1.856953
-1.074795 5.772715 -1.858453
-1.044523 5.807939 -1.867695
-1.008294 5.810939 -1.866635
-0.968153 5.790306 -1.858063
-0.930494 5.783008 -1.853854
-0.900803 5.826187 -1.865889
-0.866129 5.838970 -1.868246
-0.825772 5.812404 -1.858090
-0.789797 5.815188 -1.857396
-0.754570 5.823542 -1.858550
-0.721904 5.853045 -1.866517
-0.683095 5.832753 -1.858674
-0.647527 5.838946 -1.859347
-0.610239 5.828969 -1.854942
-0.577463 5.863076 -1.864633
-0.539223 5.842088 -1.856871
-0.502408 5.834157 -1.853336
-0.466562 5.836644 -1.853182
-0.431200 5.845630 -1.855160
-0.395162 5.845782 -1.854403
-0.360816 5.873011 -1.862304
-0.325389 5.886258 -1.865836
-0.288983 5.882390 -1.864013
-0.250836 5.836388 -1.848913
-0.215672 5.855534 -1.854524
-0.179313 5.842863 -1.850128
-0.144361 5.880636 -1.861773
-0.107705 5.850384 -1.851951
-0.072162 5.879953 -1.861136
-0.035845 5.841721 -1.848931
0.000000 5.824595 -1.843475
0.035767 5.829063 -1.844924
0.071476 5.824107 -1.843460
0.107086 5.816780 -1.841314
0.142538 5.806358 -1.838257
0.178456 5.814939 -1.841286
0.213633 5.800162 -1.836987
0.249389 5.802722 -1.838248
0.284516 5.791449 -1.835195
0.320256 5.793391 -1.836399
0.355546 5.787229 -1.835103
0.391035 5.784732 -1.835037
0.426815 5.786194 -1.836297
0.462291 5.783216 -1.836218
0.497332 5.775218 -1.834613
0.531476 5.758161 -1.830196
0.569250 5.779688 -1.838114
0.601708 5.747486 -1.829012
0.640202 5.772894 -1.838313
0.673277 5.748924 -1.831961
0.707640 5.737395 -1.829637
0.741597 5.723421 -1.826597
0.781070 5.750930 -1.836871
0.815782 5.742085 -1.835610
0.847926 5.716252 -1.828981
0.887937 5.742972 -1.839239
0.922361 5.732459 -1.837650
0.957515 5.726678 -1.837646
0.990594 5.708936 -1.833868
1.024207 5.694975 -1.831368
1.062772 5.708136 -1.837663
1.099101 5.708389 -1.839881
1.128663 5.674170 -1.831049
1.167229 5.685509 -1.836985
1.200865 5.672443 -1.835110
1.236551 5.669108 -1.836451
1.268349 5.648213 -1.832169
1.298610 5.621401 -1.826022
1.343642 5.657810 -1.840492
1.369333 5.612573 -1.828475
1.407027 5.617168 -1.832750
1.438016 5.595002 -1.828363
1.471492 5.582934 -1.827335
1.505072 5.571398 -1.826548
1.547537 5.592081 -1.836407
1.574049 5.555054 -1.827385
1.616574 5.574497 -1.837009
1.652229 5.569464 -1.838657
1.673674 5.517364 -1.824813
1.712019 5.521576 -1.829646
1.744753 5.507453 -1.828479
1.783812 5.513019 -1.833927
1.818111 5.503499 -1.834436
1.852993 5.495646 -1.835574
1.882424 5.471805 -1.831434
1.917832 5.465475 -1.833220
1.956613 5.468367 -1.838183
1.989405 5.454274 -1.837514
2.017711 5.428180 -1.832860
2.041902 5.391726 -1.824747
2.076972 5.384348 -1.826528
2.110720 5.373409 -1.827177
2.155907 5.391006 -1.837624
2.188103 5.375607 -1.836917
2.208472 5.331724 -1.826518
2.253878 5.348285 -1.836894
2.279002 5.316510 -1.830750
2.316263 5.313167 -1.834458
2.347131 5.295044 -1.833139
2.363543 5.244961 -1.820786
2.409762 5.261103 -1.831489
2.427562 5.215204 -1.820662
2.454461 5.189522 -1.816919
2.499613 5.202159 -1.826680
2.530645 5.185002 -1.826073
2.547308 5.138906 -1.815309
2.590634 5.146707 -1.823646
2.621183 5.128793 -1.822963
2.653521 5.114381 -1.823594
2.683809 5.096022 -1.822885
2.697126 5.045967 -1.810866
2.744680 5.060006 -1.821914
2.762559 5.019239 -1.813304
2.791538 4.999029 -1.812157
2.817733 4.973994 -1.809315
2.845830 4.952488 -1.807810
2.881223 4.943613 -1.810990
2.914465 4.930853 -1.812832
2.935611 4.897770 -1.807258
2.960574 4.871384 -1.804191
2.993838 4.858692 -1.806260
3.020123 4.834674 -1.804186
3.048031 4.813367 -1.803180
3.076570 4.793113 -1.802631
3.105733 4.773854 -1.802521
3.134035 4.753296 -1.801986
3.158660 4.727268 -1.799432
3.189946 4.711254 -1.800753
3.217497 4.689701 -1.800027
3.245053 4.668204 -1.799385
3.273874 4.648544 -1.799516
3.303508 4.630012 -1.800155
3.327505 4.603637 -1.797805
3.354296 4.581229 -1.797058
3.382386 4.560620 -1.797081
3.404830 4.532491 -1.794196
3.430276 4.508490 -1.792993
3.462481 4.493334 -1.795381
3.504133 4.490132 -1.802659
3.532711 4.469930 -1.803217
3.556165 4.443287 -1.801238
3.575322 4.411464 -1.797197
3.613902 4.403553 -1.802974
3.625422 4.362725 -1.795332
3.663906 4.354401 -1.801124
3.678585 4.317788 -1.795283
3.702297 4.291991 -1.793968
3.727830 4.268354 -1.793616
3.742537 4.232494 -1.788163
3.767188 4.208056 -1.787571
3.803865 4.196918 -1.792720
3.826062 4.169704 -1.791090
3.848980 4.143356 -1.789883
3.871753 4.116920 -1.788693
3.893157 4.089111 -1.786956
3.915252 4.062114 -1.785623
3.943969 4.041976 -1.787375
3.964966 4.013925 -1.785695
3.990633 3.990633 -1.786193
4.019177 3.970154 -1.788032
4.040897 3.942916 -1.786898
4.066071 3.919065 -1.787362
4.077992 3.882571 -1.782096
4.104211 3.859802 -1.783171
4.137563 3.843600 -1.787381
4.158272 3.815573 -1.786180
4.179830 3.788377 -1.785421
4.200780 3.760674 -1.784479
4.224769 3.735706 -1.784899
4.245194 3.707602 -1.783883
4.268102 3.681690 -1.783983
4.291572 3.656250 -1.784382
4.302103 3.619901 -1.779492
4.330655 3.598772 -1.782135
4.351158 3.570903 -1.781522
4.374232 3.545147 -1.782029
4.391727 3.514899 -1.780336
4.417647 3.491391 -1.782126
4.434318 3.460575 -1.780251
4.450953 3.429823 -1.778447
4.471912 3.402446 -1.778446
4.491010 3.373670 -1.777776
4.508455 3.343698 -1.776526
4.524520 3.312774 -1.774813
4.544696 3.284903 -1.774788
4.558530 3.252506 -1.772363
4.578617 3.224626 -1.772447
4.592414 3.192368 -1.770171
4.603868 3.158608 -1.767082
4.624688 3.131333 -1.767665
4.638909 3.099620 -1.765798
4.660518 3.072863 -1.766813
4.684492 3.047596 -1.768779
4.704724 3.019836 -1.769389
4.708238 2.981459 -1.763797
4.730043 2.954762 -1.765140
4.751499 2.927788 -1.766410
4.751194 2.887529 -1.759676
4.770394 2.859264 -1.760257
4.789947 2.831180 -1.761028
4.803756 2.799712 -1.759756
4.810715 2.764364 -1.756059
4.838884 2.741194 -1.760168
4.854779 2.710986 -1.759866
4.874013 2.682628 -1.760838
4.890548 2.652761 -1.760898
4.893238 2.615490 -1.756055
4.910975 2.586355 -1.756692
4.924878 2.555200 -1.756024
4.939340 2.524360 -1.755625
4.951067 2.492158 -1.754324
4.962790 2.460009 -1.753097
4.986490 2.433757 -1.756160
4.999436 2.402205 -1.755496
5.003396 2.366430 -1.751755
5.011436 2.332713 -1.749525
5.039346 2.308190 -1.754291
5.048378 2.274957 -1.752543
5.065029 2.245173 -1.753508
5.073653 2.211848 -1.751762
5.082080 2.178510 -1.750023
5.102734 2.150397 -1.752559
5.118524 2.120162 -1.753481
5.114319 2.081748 -1.747632
5.137950 2.054708 -1.751365
5.148079 2.022208 -1.750555
5.162706 1.991475 -1.751341
5.169582 1.957773 -1.749565
5.193410 1.930445 -1.753588
5.191087 1.893410 -1.748848
5.204008 1.862024 -1.749319
5.218991 1.831340 -1.750545
5.225018 1.797524 -1.748834
5.234544 1.764957 -1.748365
5.241287 1.731487 -1.747035
5.249749 1.698627 -1.746349
5.262377 1.667113 -1.747114
5.277659 1.636390 -1.748821
5.294747 1.606144 -1.751185
5.296143 1.571146 -1.748425
5.280945 1.531446 -1.740273
5.304725 1.503117 -1.745037
5.318507 1.471829 -1.746567
5.314048 1.435550 -1.742177
5.325014 1.403512 -1.742916
5.322049 1.367862 -1.739166
5.339870 1.337568 -1.742274
5.336539 1.301987 -1.738548
5.351869 1.270986 -1.740969
5.359505 1.238109 -1.740949
5.367466 1.205305 -1.741100
5.374662 1.172326 -1.741068
5.374223 1.137732 -1.738631
5.373417 1.103157 -1.736148
5.389375 1.072013 -1.739146
5.394271 1.038620 -1.738637
5.420773 1.009269 -1.745150
5.428890 0.976353 -1.745802
5.395501 0.936208 -1.733184
5.416303 0.905619 -1.738049
5.442414 0.875692 -1.744670
5.451103 0.842810 -1.745765
5.456250 0.809358 -1.745790
5.421346 0.770214 -1.733078
5.456729 0.741113 -1.742902
5.441508 0.705069 -1.736626
5.429399 0.669652 -1.731417
5.436668 0.636708 -1.732457
5.448551 0.604233 -1.735030
5.448469 0.570404 -1.733856
5.445437 0.536329 -1.731812
5.452344 0.503249 -1.732994
5.465824 0.470689 -1.736327
5.458621 0.436344 -1.733156
5.455093 0.402392 -1.731219
5.459354 0.369040 -1.731820
5.460259 0.335458 -1.731422
5.454576 0.301526 -1.729001
5.456117 0.268042 -1.728935
5.451877 0.234310 -1.727104
5.447779 0.200654 -1.725383
5.442562 0.167028 -1.723373
5.458704 0.134004 -1.728192
5.457953 0.100480 -1.727727
5.450873 0.066896 -1.725323
5.457020 0.033484 -1.727171
5.447180 -0.000000 -1.724024
5.453426 -0.033462 -1.726033
5.450432 -0.066890 -1.725183
5.441157 -0.100171 -1.722410
5.447162 -0.133720 -1.724538
5.448594 -0.167213 -1.725284
5.445588 -0.200573 -1.724689
5.443768 -0.233962 -1.724535
5.441076 -0.267303 -1.724169
5.438765 -0.300652 -1.723989
5.436865 -0.334021 -1.724004
5.433050 -0.367262 -1.723476
5.436389 -0.401012 -1.725284
5.433941 -0.434371 -1.725320
5.422988 -0.467000 -1.722720
5.422163 -0.500464 -1.723401
5.426781 -0.534491 -1.725878
5.416021 -0.567007 -1.723531
5.409072 -0.599855 -1.722458
5.435349 -0.636553 -1.732037
5.399200 -0.665928 -1.721787
5.424583 -0.702876 -1.731225
5.390494 -0.732117 -1.721746
5.383773 -0.764876 -1.721066
5.412980 -0.802940 -1.731946
5.366256 -0.829691 -1.718592
5.376469 -0.865081 -1.723531
5.394860 -0.902034 -1.731168
5.359433 -0.929950 -1.721598
5.349823 -0.962133 -1.720376
5.351924 -0.996450 -1.722985
5.341517 -1.028463 -1.721634
5.335020 -1.061201 -1.721606
5.322668 -1.092738 -1.719751
5.321393 -1.126548 -1.721540
5.334901 -1.163654 -1.728188
5.337317 -1.198535 -1.731320
5.292652 -1.222665 -1.719233
5.286656 -1.255498 -1.719755
5.285071 -1.289430 -1.721781
5.269457 -1.319930 -1.719300
5.257514 -1.351276 -1.718077
5.256117 -1.385353 -1.720365
5.238862 -1.415239 -1.717528
5.239023 -1.449833 -1.720465
5.241476 -1.485195 -1.724231
5.215097 -1.512350 -1.718573
5.205624 -1.544293 -1.718542
5.211227 -1.580808 -1.723561
5.213753 -1.616575 -1.727645
5.200517 -1.647516 -1.726576
5.161074 -1.669935 -1.716851
5.156017 -1.703318 -1.718613
5.134607 -1.731260 -1.714985
5.151095 -1.772093 -1.724092
5.138147 -1.802972 -1.723428
5.130564 -1.835745 -1.724630
5.124825 -1.869242 -1.726525
5.093275 -1.893224 -1.719777
5.078504 -1.923281 -1.718741
5.089068 -1.963070 -1.726361
5.052190 -1.984542 -1.717949
5.057938 -2.022711 -1.724092
5.034902 -2.049422 -1.720494
5.028984 -2.083073 -1.722806
5.009314 -2.111029 -1.720473
5.003061 -2.144638 -1.722813
4.981137 -2.171515 -1.719819
4.966485 -2.201492 -1.719392
4.952698 -2.231840 -1.719328
4.935308 -2.260537 -1.718074
4.895713 -2.278846 -1.709125
4.884887 -2.310380 -1.710263
4.884321 -2.346893 -1.715074
4.840833 -2.362666 -1.704862
4.852824 -2.405500 -1.714251
4.836543 -2.434511 -1.713745
4.819791 -2.463261 -1.713132
4.801159 -2.491010 -1.711910
4.781380 -2.518104 -1.710335
4.767210 -2.548127 -1.710827
4.723132 -2.561950 -1.700618
4.726850 -2.601630 -1.707672
4.709289 -2.629742 -1.707126
4.675291 -2.648520 -1.700660
4.673722 -2.685644 -1.706052
4.627191 -2.696807 -1.695075
4.636556 -2.740516 -1.704634
4.618561 -2.768259 -1.704231
4.584949 -2.786494 -1.698105
4.551854 -2.804770 -1.692190
4.568608 -2.853917 -1.704897
4.515104 -2.859158 -1.691445
4.525187 -2.904595 -1.701867
4.505561 -2.931189 -1.701218
4.485958 -2.957769 -1.700637
4.440803 -2.967249 -1.690389
4.427361 -2.997725 -1.692242
4.416407 -3.029995 -1.695130
4.403742 -3.061215 -1.697447
4.386543 -3.089352 -1.698092
4.362919 -3.112937 -1.696309
4.342130 -3.138489 -1.695682
4.330878 -3.170993 -1.698854
4.304611 -3.192517 -1.696203
4.263830 -3.203011 -1.687846
4.239257 -3.225431 -1.685921
4.247147 -3.272773 -1.697013
4.203104 -3.280134 -1.687426
4.170634 -3.296170 -1.682478
4.166686 -3.334788 -1.689108
4.156457 -3.368648 -1.693309
4.133181 -3.392014 -1.692274
4.110460 -3.415790 -1.691521
4.089391 -3.440919 -1.691507
4.068322 -3.466050 -1.691557
4.045050 -3.489284 -1.690752
4.018471 -3.509590 -1.688611
3.976597 -3.516263 -1.680050
3.975292 -3.558811 -1.688693
3.946920 -3.577280 -1.685933
3.931002 -3.607033 -1.688556
3.903038 -3.625737 -1.686069
3.883177 -3.651930 -1.687138
3.859842 -3.674875 -1.686764
3.830640 -3.692147 -1.683872
3.816867 -3.724318 -1.687831
3.768437 -3.722473 -1.676484
3.756491 -3.756491 -1.681392
3.723541 -3.769519 -1.676965
3.705574 -3.797657 -1.679336
3.672103 -3.809845 -1.674730
3.654885 -3.838846 -1.677589
3.624803 -3.854332 -1.674605
3.594842 -3.869780 -1.671702
3.574487 -3.895533 -1.673320
3.554847 -3.922169 -1.675361
3.525212 -3.937762 -1.672750
3.492320 -3.949520 -1.668611
3.467868 -3.970699 -1.668537
3.443555 -3.992037 -1.668593
3.410204 -4.002772 -1.664303
3.391981 -4.031230 -1.667450
3.364667 -4.048941 -1.666205
3.344371 -4.075128 -1.668505
3.314437 -4.089567 -1.666059
3.291940 -4.113149 -1.667405
3.265393 -4.131692 -1.666769
3.237519 -4.148497 -1.665503
3.199337 -4.151847 -1.658935
3.187626 -4.189569 -1.666161
3.162957 -4.210511 -1.666739
3.131667 -4.222565 -1.663873
3.105600 -4.241565 -1.663820
3.078096 -4.258576 -1.663053
3.040856 -4.261893 -1.657030
3.014641 -4.280461 -1.657026
2.987581 -4.297816 -1.656617
2.961331 -4.316325 -1.656716
2.928916 -4.325737 -1.653399
2.904570 -4.346997 -1.654682
2.875617 -4.361361 -1.653402
2.845922 -4.374496 -1.651730
2.816701 -4.388252 -1.650368
2.792080 -4.409176 -1.651763
2.759816 -4.417969 -1.648682
2.722396 -4.418170 -1.642492
2.701355 -4.444860 -1.646221
2.677804 -4.467646 -1.648544
2.647596 -4.479349 -1.646836
2.615238 -4.487234 -1.643805
2.584655 -4.497975 -1.641899
2.565531 -4.528796 -1.647372
2.534936 -4.539513 -1.645581
2.514588 -4.568705 -1.650539
0.541386 -5.171294 -1.645652
0.508138 -5.159211 -1.640783
0.476113 -5.158337 -1.639545
0.443335 -5.148181 -1.635422
0.411305 -5.145390 -1.633703
0.379959 -5.150976 -1.634705
0.349430 -5.169241 -1.639791
0.316386 -5.149812 -1.632981
0.285108 -5.157570 -1.634855
0.253080 -5.151555 -1.632426
0.221943 -5.164123 -1.635946
0.190411 -5.169693 -1.637309
0.158258 -5.156799 -1.632887
0.126609 -5.157480 -1.632826
0.094973 -5.158800 -1.633029
0.063385 -5.164843 -1.634788
0.031705 -5.167063 -1.635398
0.000000 -5.146101 -1.628733
-0.031613 -5.152129 -1.630672
-0.063219 -5.151270 -1.630492
-0.094929 -5.156417 -1.632275
-0.126624 -5.158080 -1.633016
-0.157621 -5.136021 -1.626308
-0.189501 -5.144993 -1.629487
-0.220969 -5.141454 -1.628764
-0.252801 -5.145891 -1.630631
-0.283747 -5.132950 -1.627051
-0.315675 -5.138252 -1.629315
-0.348254 -5.151852 -1.634274
-0.379454 -5.144129 -1.632532
-0.411444 -5.147128 -1.634255
-0.442841 -5.142441 -1.633598
-0.474060 -5.136099 -1.632477
-0.505156 -5.128934 -1.631154
-0.538200 -5.140858 -1.635966
-0.570129 -5.141028 -1.637103
-0.601742 -5.138105 -1.637317
-0.631613 -5.120984 -1.633065
-0.663471 -5.120468 -1.634168
-0.695362 -5.119870 -1.635308
-0.728410 -5.127099 -1.639014
-0.759904 -5.122854 -1.639116
-0.791239 -5.117554 -1.638943
-0.822067 -5.109134 -1.637831
-0.856172 -5.120569 -1.643150
-0.885395 -5.102656 -1.639114
-0.917594 -5.102169 -1.640736
-0.948577 -5.094799 -1.640207
-0.979470 -5.087064 -1.639621
-1.010360 -5.079421 -1.639124
-1.041500 -5.073092 -1.639113
-1.071842 -5.062985 -1.637942
-1.105129 -5.066586 -1.641270
-1.136207 -5.059759 -1.641286
-1.166022 -5.047454 -1.639584
-1.198226 -5.045494 -1.641305
-1.227953 -5.033088 -1.639689
-1.258261 -5.023261 -1.638972
-1.289079 -5.015520 -1.638997
-1.321266 -5.012968 -1.640781
-1.349648 -4.996057 -1.637926
-1.382836 -4.996928 -1.640962
-1.410158 -4.976657 -1.637116
-1.438676 -4.961045 -1.634853
-1.472305 -4.962964 -1.638432
-1.502247 -4.952243 -1.637905
-1.531903 -4.940670 -1.637155
-1.563475 -4.935235 -1.638503
-1.593721 -4.925529 -1.638496
-1.622706 -4.912001 -1.637277
-1.655761 -4.910691 -1.640196
-1.685796 -4.900249 -1.640133
-1.713951 -4.884451 -1.638334
-1.743836 -4.873695 -1.638284
-1.771256 -4.856182 -1.636020
-1.805007 -4.855949 -1.639642
-1.833369 -4.841088 -1.638392
-1.863755 -4.831603 -1.639021
-1.896918 -4.829118 -1.642096
-1.925707 -4.815372 -1.641409
-1.953736 -4.799827 -1.640165
-1.985431 -4.793254 -1.642051
-2.014902 -4.781214 -1.642131
-2.045515 -4.771825 -1.643186
-2.078682 -4.768191 -1.646296
-2.111523 -4.763520 -1.649126
-2.139472 -4.747724 -1.648171
-2.172538 -4.743184 -1.651192
-2.202906 -4.732568 -1.652170
-2.241084 -4.738375 -1.658967
-2.272715 -4.729943 -1.660866
-2.298962 -4.710309 -1.658894
-2.328583 -4.697654 -1.659438
-2.375561 -4.719429 -1.672247
-2.398284 -4.692652 -1.667943
-2.427977 -4.679669 -1.668592
-2.446801 -4.645991 -1.661906
-2.484256 -4.647717 -1.667944
-2.503684 -4.615715 -1.661941
-2.535437 -4.606586 -1.664224
-2.584391 -4.628075 -1.677686
-2.597608 -4.585420 -1.667969
-2.620074 -4.559613 -1.664399
-2.656593 -4.558191 -1.669798
-2.686503 -4.545174 -1.671037
-2.707753 -4.517612 -1.666981
-2.739943 -4.508353 -1.669737
-2.770758 -4.496655 -1.671670
-2.796150 -4.476134 -1.670387
-2.824436 -4.460272 -1.670904
-2.860010 -4.455726 -1.675744
-2.885445 -4.435247 -1.674669
-2.909459 -4.412688 -1.672861
-2.939344 -4.399039 -1.674492
-2.966488 -4.381227 -1.674609
-2.987766 -4.354854 -1.671504
-3.015426 -4.337871 -1.672056
-3.042348 -4.319803 -1.672256
-3.070848 -4.303928 -1.673373
-3.098437 -4.286718 -1.674043
-3.123830 -4.266463 -1.673586
-3.154023 -4.252708 -1.675751
-3.197470 -4.256454 -1.684926
-3.215172 -4.225774 -1.680559
-3.246232 -4.212704 -1.683251
-3.276284 -4.198170 -1.685445
-3.300863 -4.176573 -1.684874
-3.326506 -4.156337 -1.684913
-3.346866 -4.129581 -1.682360
-3.378316 -4.116489 -1.685440
-3.403364 -4.095507 -1.685367
-3.429846 -4.076231 -1.686064
-3.452598 -4.052533 -1.684993
-3.474865 -4.028334 -1.683765
-3.506540 -4.014979 -1.687144
-3.530193 -3.992350 -1.686706
-3.532962 -3.946418 -1.676428
-3.558290 -3.925968 -1.676984
-3.585139 -3.907142 -1.678307
-3.611601 -3.887821 -1.679495
-3.634000 -3.864111 -1.678854
-3.660419 -3.844658 -1.680129
-3.707462 -3.846530 -1.690856
-3.730701 -3.823408 -1.690724
-3.750339 -3.796647 -1.689034
-3.772654 -3.772654 -1.688627
-3.810595 -3.764116 -1.695239
-3.810017 -3.717634 -1.684802
-3.841548 -3.702660 -1.688666
-3.866394 -3.681114 -1.689628
-3.887580 -3.656071 -1.689051
-3.932233 -3.652857 -1.698681
-3.926716 -3.603100 -1.686715
-3.971145 -3.599236 -1.696281
-3.996253 -3.577575 -1.697597
-4.017865 -3.552754 -1.697485
-4.043914 -3.531812 -1.699303
-4.046913 -3.490891 -1.691530
-4.084319 -3.479679 -1.698209
-4.096842 -3.447189 -1.694589
-4.119482 -3.423288 -1.695234
-4.162200 -3.415829 -1.704155
-4.178776 -3.386738 -1.702402
-4.195183 -3.357595 -1.700660
-4.228938 -3.342249 -1.705999
-4.240643 -3.309430 -1.702497
-4.242180 -3.268946 -1.695029
-4.269691 -3.248586 -1.698025
-4.288121 -3.221259 -1.697462
-4.314238 -3.199657 -1.699996
-4.329523 -3.170002 -1.698323
-4.352915 -3.146283 -1.699893
-4.372540 -3.119802 -1.700050
-4.393430 -3.094203 -1.700758
-4.427920 -3.078022 -1.706766
-4.447978 -3.051656 -1.707248
-4.445788 -3.010201 -1.699286
-4.472181 -2.988216 -1.702333
-4.484335 -2.956699 -1.700022
-4.526192 -2.944611 -1.709008
-4.545484 -2.917624 -1.709501
-4.550797 -2.881760 -1.704817
-4.581258 -2.861819 -1.709617
-4.600086 -2.834490 -1.710121
-4.624201 -2.810350 -1.712643
-4.636317 -2.778901 -1.710783
-4.649879 -2.748391 -1.709532
-4.648861 -2.709437 -1.703014
-4.662125 -2.678980 -1.701819
-4.705092 -2.665402 -1.711501
-4.722845 -2.637312 -1.712040
-4.738693 -2.608148 -1.711951
-4.760311 -2.582117 -1.714005
-4.771956 -2.550664 -1.712530
-4.786302 -2.520696 -1.712096
-4.788186 -2.484280 -1.707285
-4.799797 -2.453043 -1.706026
-4.809738 -2.421019 -1.704247
-4.852987 -2.405580 -1.714309
-4.862717 -2.373347 -1.712569
-4.877183 -2.343463 -1.712568
-4.893103 -2.314266 -1.713139
-4.915819 -2.288205 -1.716144
-4.922703 -2.254764 -1.713685
-4.939944 -2.226093 -1.714900
-4.950828 -2.194551 -1.713971
-4.962073 -2.163205 -1.713237
-4.938771 -2.117079 -1.700675
-4.981404 -2.099267 -1.710887
-4.995725 -2.069297 -1.711413
-4.992560 -2.032187 -1.706025
-5.006760 -2.002244 -1.706647
-5.010224 -1.968057 -1.703679
-5.022241 -1.937292 -1.703691
-5.028111 -1.904197 -1.701687
-5.049053 -1.876785 -1.704845
-5.088721 -1.856073 -1.714361
-5.225836 -1.446184 -1.716134
-5.225623 -1.411663 -1.713187
-5.230711 -1.378657 -1.712050
-5.240241 -1.346836 -1.712432
-5.252586 -1.315704 -1.713796
-5.268142 -1.285300 -1.716266
-5.283335 -1.254710 -1.718675
-5.272059 -1.217908 -1.712544
-5.298311 -1.189776 -1.718667
-5.298097 -1.155626 -1.716265
-5.303237 -1.122704 -1.715667
-5.327174 -1.093663 -1.721207
-5.328325 -1.059870 -1.719445
-5.338132 -1.027811 -1.720543
-5.346485 -0.995437 -1.721234
-5.365431 -0.964940 -1.725394
-5.357538 -0.929621 -1.720989
-5.361361 -0.896433 -1.720418
-5.385687 -0.866564 -1.726486
-5.390629 -0.833460 -1.726398
-5.388636 -0.799329 -1.724157
-5.402455 -0.767530 -1.727039
-5.399545 -0.733346 -1.724638
-5.413705 -0.701466 -1.727753
-5.406477 -0.666825 -1.724108
-5.425556 -0.635406 -1.728916
-5.419778 -0.601042 -1.725867
-5.436682 -0.569170 -1.730106
-5.439800 -0.535774 -1.730019
-5.445461 -0.502614 -1.730806
-5.448020 -0.469155 -1.730672
-5.447757 -0.435475 -1.729707
-5.450081 -0.402022 -1.729629
-5.444901 -0.368064 -1.727236
-5.455910 -0.335191 -1.730043
-5.452359 -0.301404 -1.728298
-5.461599 -0.268311 -1.730673
-5.459665 -0.234645 -1.729571
-5.457197 -0.201000 -1.728366
-5.462545 -0.167641 -1.729701
-5.470936 -0.134304 -1.732064
-5.463981 -0.100591 -1.729635
-5.458260 -0.066986 -1.727661
-5.460942 -0.033508 -1.728412
-5.293412 1.086732 -1.755805
-5.284787 1.118798 -1.755189
-5.265220 1.148455 -1.750997
-5.252476 1.179483 -1.749133
-5.233735 1.209055 -1.745330
-5.236994 1.243705 -1.748929
-5.222466 1.274156 -1.746655
-5.208688 1.304708 -1.744692
-5.212126 1.339610 -1.748564
-5.187000 1.367136 -1.742916
-5.098403 1.824238 -1.759420
-5.064056 1.847077 -1.751445
-5.065187 1.882783 -1.755799
-5.044829 1.910528 -1.752773
-5.032923 1.941412 -1.752742
-5.024355 1.973608 -1.753943
-5.006529 2.002152 -1.751976
-4.991284 2.031667 -1.750970
-4.967708 2.057692 -1.747096
-4.965627 2.092618 -1.750847
-4.947822 2.120959 -1.749125
-4.927917 2.148314 -1.746715
-4.922565 2.182023 -1.749531
-4.916573 2.215561 -1.752200
-4.895611 2.242355 -1.749600
-4.882126 2.272522 -1.749731
-4.867442 2.302129 -1.749499
-4.845068 2.328032 -1.746558
-4.833941 2.359303 -1.747733
-4.830896 2.394630 -1.751911
-4.815166 2.423751 -1.751567
-4.787070 2.446538 -1.746775
-4.778218 2.479108 -1.749062
-4.764735 2.509337 -1.749730
-4.751202 2.539570 -1.750450
-4.733764 2.567717 -1.749797
-4.727309 2.601883 -1.753279
-4.713259 2.631959 -1.754025
-4.695164 2.659778 -1.753332
-4.685334 2.692317 -1.755797
-4.680160 2.727679 -1.760097
-4.653810 2.750714 -1.756502
-4.639709 2.780935 -1.757587
-4.622628 2.809393 -1.757614
-4.608467 2.839654 -1.758821
-4.597891 2.872209 -1.761478
-4.578684 2.899420 -1.760902
-4.560178 2.927056 -1.760659
-4.547229 2.958297 -1.762635
-4.527327 2.985045 -1.761987
-4.512088 3.014881 -1.763223
-4.493607 3.042580 -1.763263
-4.479533 3.073305 -1.765107
-4.465088 3.103859 -1.766887
-4.440025 3.127019 -1.764528
-4.431275 3.161709 -1.768728
-4.403880 3.183121 -1.765556
-4.398448 3.220467 -1.771267
-4.374154 3.244094 -1.769467
-4.361391 3.276299 -1.772403
-4.339905 3.302009 -1.771871
-4.328731 3.335640 -1.775632
-4.303692 3.358634 -1.773782
-4.283133 3.385081 -1.773835
-4.268045 3.415910 -1.776234
-4.245574 3.440874 -1.775635
-4.234520 3.475181 -1.779897
-4.211474 3.499733 -1.779203
-4.190265 3.525797 -1.779349
-4.164262 3.547787 -1.777518
-4.153928 3.583203 -1.782458
-4.131723 3.608501 -1.782397
-4.103345 3.628338 -1.779726
-4.088675 3.660314 -1.783071
-4.070313 3.689117 -1.784902
-4.052707 3.718708 -1.787153
-4.027323 3.741192 -1.786049
-4.006284 3.767706 -1.786938
-3.987774 3.796676 -1.789039
-3.964650 3.821311 -1.789150
-3.944909 3.849255 -1.790867
-3.920574 3.872754 -1.790574
-3.897628 3.897628 -1.790983
-3.874912 3.922758 -1.791571
-3.852308 3.948037 -1.792287
-3.839630 3.983656 -1.797727
-3.807518 3.999161 -1.794148
-3.786854 4.026644 -1.796019
-3.767331 4.055462 -1.798528
-3.744810 4.081154 -1.799698
-3.717025 4.101105 -1.798405
-3.692981 4.125165 -1.798984
-3.674317 4.155342 -1.802279
-3.649690 4.178885 -1.802743
-3.625111 4.202511 -1.803305
-3.598027 4.223232 -1.802689
-3.578157 4.252493 -1.805773
-3.549932 4.271882 -1.804723
-3.525850 4.296261 -1.805849
-3.498071 4.316146 -1.805151
-3.476394 4.343617 -1.807685
-3.453322 4.369478 -1.809595
-3.432475 4.398311 -1.812779
-3.400407 4.412779 -1.810108
-3.380129 4.442580 -1.813791
-3.346256 4.454518 -1.810248
-3.316521 4.471811 -1.808971
-3.297896 4.504199 -1.813853
-3.271222 4.525769 -1.814422
-3.241421 4.542994 -1.813320
-3.212248 4.561042 -1.812622
-3.189858 4.588804 -1.815842
-3.165555 4.613994 -1.818090
-3.138210 4.634845 -1.818684
-3.108851 4.652724 -1.818180
-3.078336 4.668819 -1.817054
-3.058840 4.701775 -1.822542
-3.022696 4.709181 -1.818188
-2.999793 4.737191 -1.821862
-2.974843 4.762189 -1.824421
-2.942667 4.775646 -1.822625
-2.915327 4.796934 -1.823888
-2.891643 4.824415 -1.827557
-2.858020 4.835355 -1.825023
-2.829339 4.854589 -1.825696
-2.805051 4.881521 -1.829317
-2.776919 4.901948 -1.830552
-2.741329 4.909117 -1.826913
-2.716837 4.936166 -1.830741
-2.687924 4.955373 -1.831713
-2.658689 4.974057 -1.832555
-2.631437 4.996577 -1.834869
-2.597483 5.006374 -1.832579
-2.575362 5.039135 -1.838752
-2.535761 5.037692 -1.832513
-2.510611 5.064873 -1.836762
-2.480398 5.082051 -1.837438
-2.449087 5.097006 -1.837377
-2.419232 5.115037 -1.838491
-2.392749 5.140414 -1.842301
-2.355586 5.142823 -1.837949
-2.327148 5.164196 -1.840450
-2.296807 5.181513 -1.841564
-2.267499 5.201308 -1.843619
-2.231583 5.205888 -1.840355
-2.201832 5.224784 -1.842224
-2.172826 5.245666 -1.844851
-2.141155 5.260266 -1.845331
-2.106918 5.268504 -1.843650
-2.076333 5.285869 -1.845234
-2.041206 5.291626 -1.842837
-2.008024 5.302272 -1.842219
-1.978889 5.323738 -1.845423
-1.945552 5.334043 -1.844823
-1.912019 5.343734 -1.844082
-1.878534 5.353483 -1.843434
-1.849545 5.376230 -1.847324
-1.816022 5.385996 -1.846816
-1.785663 5.405278 -1.849636
-1.750648 5.410525 -1.847720
-1.718748 5.425367 -1.849153
-1.686600 5.439596 -1.850440
-1.653108 5.449566 -1.850347
-1.620106 5.461181 -1.850880
-1.587094 5.472840 -1.851496
-1.551480 5.475403 -1.849108
-1.520523 5.494463 -1.852359
-1.482222 5.486815 -1.846680
-1.451912 5.508647 -1.850994
-1.418655 5.519670 -1.851738
-1.385152 5.529837 -1.852263
-1.351523 5.539575 -1.852712
-1.317212 5.546518 -1.852296
-1.280588 5.543388 -1.848592
-1.247758 5.556519 -1.850383
-1.215245 5.571427 -1.852829
-1.178329 5.565990 -1.848582
-1.145966 5.581940 -1.851509
-1.112517 5.593001 -1.852879
-1.078944 5.603701 -1.854195
-1.041964 5.596378 -1.849622
-1.008658 5.608520 -1.851554
-0.975802 5.623688 -1.854550
-0.941622 5.631628 -1.855228
-0.905883 5.630053 -1.852844
-0.873313 5.648394 -1.857081
-0.839250 5.657762 -1.858433
-0.803207 5.653572 -1.855403
-0.768516 5.658494 -1.855436
-0.733472 5.660714 -1.854653
-0.698549 5.663684 -1.854187
-0.663766 5.667712 -1.854137
-0.629191 5.673603 -1.854766
-0.594503 5.678664 -1.855193
-0.559494 5.680634 -1.854681
-0.525323 5.691499 -1.857141
-0.489761 5.687300 -1.854755
-0.454977 5.691717 -1.855250
-0.420072 5.694777 -1.855372
-0.384698 5.690977 -1.853331
-0.349570 5.689955 -1.852264
-0.314728 5.693390 -1.852719
-0.280297 5.705573 -1.856089
-0.245014 5.700925 -1.854053
-0.210174 5.706270 -1.855337
-0.174814 5.696274 -1.851703
-0.139767 5.693472 -1.850479
-0.104613 5.682439 -1.846649
-0.069701 5.679494 -1.845518
-0.034814 5.673676 -1.843524
0.000000 5.675825 -1.844187
0.034814 5.673753 -1.843549
0.069439 5.658109 -1.838569
0.104095 5.654318 -1.837511
0.139002 5.662324 -1.840355
0.173682 5.659388 -1.839712
0.208083 5.649502 -1.836879
0.242711 5.647335 -1.836624
0.276991 5.638280 -1.834198
0.311697 5.638562 -1.834877
0.346081 5.633168 -1.833778
0.380112 5.623141 -1.831239
0.414912 5.624828 -1.832583
0.450275 5.632897 -1.836077
0.483519 5.614815 -1.831116
0.517809 5.610086 -1.830576
0.553304 5.617791 -1.834163
0.587240 5.609289 -1.832529
0.621631 5.605432 -1.832481
0.656701 5.607380 -1.834400
0.690407 5.597672 -1.832576
0.724926 5.594758 -1.833043
0.759250 5.590275 -1.833067
0.792501 5.578213 -1.830672
0.826688 5.573079 -1.830617
0.860868 5.567897 -1.830615
0.894637 5.560158 -1.829841
0.927880 5.549438 -1.828153
0.963251 5.551351 -1.830695
0.996962 5.543483 -1.830084
1.028496 5.524041 -1.825714
1.063489 5.523431 -1.827635
1.097999 5.520016 -1.828700
1.132568 5.516676 -1.829861
1.164503 5.500682 -1.826892
1.198545 5.494865 -1.827368
1.231980 5.486258 -1.826985
1.264254 5.472683 -1.825013
1.302607 5.485019 -1.831758
1.331857 5.458966 -1.825753
1.367038 5.457520 -1.828040
1.402029 5.454983 -1.830037
1.434454 5.442410 -1.828738
1.470875 5.444811 -1.832543
1.499625 5.418947 -1.826900
1.535551 5.419189 -1.830124
1.565449 5.398202 -1.826246
1.598495 5.388335 -1.826191
1.631554 5.378512 -1.826221
1.666901 5.376062 -1.828827
1.699241 5.363790 -1.828165
1.732755 5.355225 -1.828836
1.764941 5.342551 -1.828171
1.798258 5.333309 -1.828750
1.830319 5.320345 -1.828121
1.862153 5.306802 -1.827360
1.898559 5.306116 -1.831100
1.927120 5.283509 -1.827345
1.961182 5.276100 -1.828910
1.995337 5.268771 -1.830579
2.021458 5.240434 -1.825009
2.055846 5.233712 -1.827027
2.089088 5.223919 -1.828049
2.121264 5.211401 -1.828188
2.153295 5.198514 -1.828268
2.184054 5.182597 -1.827349
2.213798 5.164400 -1.825688
2.242454 5.143859 -1.823256
2.276720 5.136198 -1.825459
2.306797 5.119035 -1.824355
2.342359 5.113945 -1.827629
2.367782 5.086776 -1.823077
2.395870 5.065642 -1.820737
2.432039 5.061526 -1.824587
2.458760 5.037718 -1.821409
2.494606 5.032585 -1.825053
2.522130 5.010611 -1.822662
2.554378 4.998077 -1.823770
2.580464 4.973571 -1.820571
2.612738 4.961071 -1.821830
2.643259 4.945190 -1.821920
2.674532 4.930684 -1.822587
2.690936 4.889109 -1.813288
2.726546 4.882644 -1.817062
2.757389 4.867473 -1.817678
2.785169 4.846921 -1.816351
2.809101 4.819864 -1.812637
2.849254 4.820524 -1.819426
2.876802 4.799654 -1.818177
2.905233 4.780325 -1.817573
2.921858 4.741875 -1.809737
2.954835 4.730159 -1.812151
2.977466 4.701933 -1.808302
3.009369 4.688418 -1.810172
3.037149 4.668434 -1.809618
3.064553 4.647915 -1.808919
3.091917 4.627380 -1.808277
3.117975 4.604960 -1.806957
3.139677 4.576275 -1.803227
3.163750 4.551245 -1.800980
3.197860 4.540612 -1.804503
3.222701 4.516757 -1.802847
3.249446 4.495641 -1.802344
3.269860 4.465908 -1.798433
3.309597 4.462475 -1.805195
3.325528 4.426925 -1.799034
3.354856 4.409363 -1.800229
3.387510 4.396042 -1.803243
3.411286 4.371159 -1.801588
3.436946 4.348758 -1.801014
3.464691 4.328994 -1.801599
3.487518 4.303125 -1.799705
3.513684 4.281437 -1.799618
3.534279 4.253046 -1.796766
3.562474 4.233854 -1.797858
3.583473 4.206149 -1.795397
3.613163 4.188660 -1.797362
3.638702 4.166304 -1.797315
3.662349 4.141808 -1.796409
3.687861 4.119446 -1.796490
3.719789 4.104155 -1.799742
3.735836 4.071374 -1.795385
3.761740 4.049443 -1.795859
3.777922 4.017147 -1.791783
3.800719 3.992020 -1.790944
3.833551 3.977349 -1.794881
3.852139 3.947865 -1.792209
3.877682 3.925562 -1.792852
3.896317 3.896317 -1.790380
3.921588 3.873756 -1.791037
3.948121 3.852390 -1.792325
3.963428 3.820134 -1.788599
3.985525 3.794535 -1.788030
4.003019 3.764635 -1.785481
4.027577 3.741427 -1.786162
4.056405 3.722101 -1.788784
4.075820 3.694108 -1.787316
4.101437 3.671740 -1.788637
4.112410 3.636354 -1.783658
4.132067 3.608801 -1.782546
4.152373 3.581862 -1.781791
4.178469 3.559891 -1.783582
4.199417 3.533498 -1.783235
4.229146 3.514418 -1.786669
4.250822 3.488559 -1.786749
4.267554 3.458688 -1.784828
4.291498 3.434680 -1.785994
4.302214 3.400161 -1.781738
4.325910 3.375974 -1.782939
4.343416 3.346956 -1.781656
4.353768 3.312557 -1.777531
4.387940 3.296243 -1.783192
4.396684 3.260803 -1.778581
4.420084 3.236308 -1.779980
4.442920 3.211339 -1.781207
4.460702 3.182705 -1.780473
4.475749 3.152178 -1.778725
4.499567 3.127827 -1.780530
4.509549 3.093898 -1.776935
4.526628 3.064938 -1.776221
4.549785 3.040069 -1.777954
4.554367 3.002874 -1.772511
4.569113 2.972534 -1.771118
4.587848 2.944816 -1.771343
4.607235 2.917499 -1.771883
4.626691 2.890200 -1.772511
4.639468 2.858756 -1.770653
4.658520 2.831207 -1.771261
4.675810 2.802573 -1.771263
4.689817 2.771996 -1.770092
4.691534 2.734308 -1.764375
4.711738 2.707489 -1.765692
4.724824 2.676580 -1.764408
4.734681 2.643921 -1.761997
4.757811 2.618671 -1.764592
4.765287 2.584817 -1.761450
4.789178 2.559869 -1.764441
4.801843 2.528880 -1.763357
4.816451 2.498944 -1.763058
4.832086 2.469545 -1.763201
4.840417 2.436461 -1.760752
4.844903 2.401573 -1.756991
4.870067 2.376935 -1.760794
4.875611 2.342708 -1.757568
4.893676 2.314536 -1.758928
4.903824 2.282622 -1.757508
4.914634 2.251068 -1.756399
4.938828 2.225590 -1.760131
4.941943 2.190613 -1.756418
4.955329 2.160265 -1.756432
4.961134 2.126665 -1.753831
4.973024 2.095735 -1.753455
4.992218 2.067844 -1.755716
5.001502 2.035827 -1.754555
5.017481 2.006532 -1.755808
5.019304 1.971624 -1.752179
5.024212 1.938052 -1.749709
5.048053 1.911749 -1.753893
5.067130 1.883505 -1.756473
5.066016 1.847791 -1.752123
5.091823 1.821883 -1.757149
5.084942 1.784303 -1.750964
5.100910 1.754828 -1.752721
5.111455 1.723454 -1.752678
5.120345 1.691534 -1.752134
5.123038 1.657628 -1.749542
5.133848 1.626395 -1.749793
5.139375 1.593514 -1.748311
5.162090 1.565903 -1.752737
5.164342 1.532046 -1.750277
5.175395 1.500837 -1.750869
5.174969 1.466350 -1.747648
5.185915 1.435136 -1.748338
5.193314 1.402935 -1.747897
5.208577 1.372823 -1.750166
5.204532 1.337658 -1.746016
5.214363 1.306130 -1.746592
5.213098 1.271871 -1.743522
5.222169 1.240184 -1.743978
5.226042 1.207277 -1.742764
5.240842 1.176870 -1.745259
5.235105 1.141886 -1.740982
5.246008 1.110588 -1.742309
5.252107 1.078252 -1.742105
5.245404 1.043376 -1.737725
5.255654 1.011931 -1.739031
5.256549 0.978693 -1.737307
5.271464 0.948041 -1.740281
5.283036 0.916694 -1.742212
5.277839 0.882468 -1.738680
5.277099 0.849092 -1.736687
5.287581 0.817527 -1.738453
5.294703 0.785395 -1.739177
5.298958 0.752826 -1.739025
5.303949 0.720363 -1.739179
5.305854 0.687492 -1.738388
5.302754 0.654032 -1.736025
5.308765 0.621729 -1.736711
5.310688 0.588944 -1.736125
5.313687 0.556293 -1.735957
5.315670 0.523548 -1.735523
5.316601 0.490720 -1.734811
5.315645 0.457756 -1.733550
5.321966 0.425420 -1.734728
5.326321 0.392893 -1.735328
5.320993 0.359688 -1.732841
5.325613 0.327186 -1.733659
5.323571 0.294284 -1.732374
5.324788 0.261590 -1.732215
5.319322 0.228613 -1.729948
5.314457 0.195743 -1.727943
5.327103 0.163485 -1.731696
5.324356 0.130706 -1.730509
5.335923 0.098234 -1.734040
5.325091 0.065352 -1.730357
5.322119 0.032657 -1.729294
5.322204 -0.000000 -1.729289
5.325360 -0.032676 -1.730347
5.321600 -0.065309 -1.729223
5.319277 -0.097927 -1.728631
5.314706 -0.130469 -1.727373
5.317277 -0.163183 -1.728501
5.311215 -0.195624 -1.726889
5.309667 -0.228198 -1.726808
5.313875 -0.261054 -1.728665
5.293155 -0.292603 -1.722476
5.300702 -0.325656 -1.725550
5.298971 -0.358199 -1.725669
5.298108 -0.390812 -1.726137
5.297373 -0.423454 -1.726711
5.289317 -0.455489 -1.724964
5.288144 -0.488094 -1.725525
5.279600 -0.519995 -1.723746
5.275737 -0.552320 -1.723559
5.276703 -0.585175 -1.725015
5.272982 -0.617538 -1.725005
5.267315 -0.649661 -1.724423
5.259274 -0.681456 -1.723127
5.260419 -0.714450 -1.724906
5.244332 -0.745066 -1.721098
5.254918 -0.779493 -1.726109
5.244750 -0.810905 -1.724371
5.245162 -0.843954 -1.726176
5.230171 -0.874497 -1.722976
5.232729 -0.907965 -1.725622
5.215977 -0.938062 -1.721963
5.218821 -0.971668 -1.724838
5.200133 -1.001241 -1.720660
5.199692 -1.034283 -1.722581
5.190869 -1.065680 -1.721792
5.175221 -1.095603 -1.718799
5.179165 -1.129685 -1.722379
5.172647 -1.161557 -1.722549
5.160975 -1.192246 -1.721066
5.146588 -1.222235 -1.718737
5.147866 -1.255956 -1.721705
5.140089 -1.287525 -1.721714
5.130354 -1.318593 -1.721131
5.122467 -1.350127 -1.721232
5.104911 -1.379054 -1.718143
5.088664 -1.408223 -1.715551
5.087846 -1.441664 -1.718225
5.078621 -1.472773 -1.718129
5.071003 -1.504356 -1.718643
5.061809 -1.535483 -1.718687
5.041871 -1.563281 -1.715142
5.035350 -1.595192 -1.716222
5.011114 -1.621414 -1.711320
5.018986 -1.658049 -1.717450
4.997677 -1.685091 -1.713664
4.978852 -1.712838 -1.710781
4.982124 -1.748224 -1.715559
4.967839 -1.777521 -1.714364
4.957361 -1.808160 -1.714544
4.947656 -1.839095 -1.715058
4.926905 -1.865869 -1.711801
4.917312 -1.896817 -1.712480
4.909650 -1.928551 -1.713900
4.889989 -1.955546 -1.711194
4.883356 -1.987736 -1.713108
4.875020 -2.019299 -1.714498
4.846470 -2.042403 -1.708833
4.844218 -2.076547 -1.712499
4.820663 -2.101557 -1.708699
4.809690 -2.131989 -1.709414
