8.839198 6.471906 0.322751
8.707221 6.293573 0.316516
8.780050 6.264555 0.317761
5.966785 4.202284 0.215008
6.012156 4.179287 0.215715
33.765271 23.165578 1.206367
34.070107 23.068552 1.212178
33.998498 22.717070 1.204648
35.835918 23.628032 1.264591
36.047339 23.451366 1.266950
34.975899 22.450087 1.224428
35.157213 22.263059 1.225970
38.276982 23.910856 1.329618
33.816148 20.836899 1.170200
33.697161 20.479386 1.161712
25.430826 15.242650 0.873489
25.327153 14.970047 0.866756
25.389072 14.797192 0.865752
25.505419 14.656087 0.866636
25.616287 14.511447 0.867362
25.799095 14.406626 0.870542
26.098856 14.364655 0.877666
36.537927 19.819127 1.224604
35.115996 18.769891 1.173065
32.576262 17.156219 1.084687
11.918734 5.999386 0.393112
11.968165 5.932508 0.393534
12.148266 5.929207 0.398253
12.126568 5.826758 0.396362
31.207802 14.760191 1.017060
31.817646 14.810411 1.033954
31.329860 14.350131 1.015222
31.407122 14.153029 1.014893
31.708516 14.055418 1.021826
40.547001 17.676375 1.303131
40.209314 17.236330 1.288855
32.387186 13.648629 1.035423
35.259511 14.604968 1.124366
32.589980 13.265524 1.036624
37.991708 15.193196 1.205454
32.374300 12.716894 1.024722
32.402935 12.499191 1.023182
31.980196 12.111226 1.007467
32.166217 11.956518 1.010997
33.110603 12.076844 1.038331
32.978721 11.799975 1.031905
31.971266 11.218696 0.998209
31.869578 10.963855 0.992915
32.007846 10.792241 0.995141
32.151962 10.621573 0.997577
31.833634 10.300202 0.985721
31.393802 9.945510 0.970193
25.005234 7.418015 0.768411
24.649398 7.148193 0.756114
24.576922 6.963980 0.752566
24.856749 6.878789 0.759827
24.702833 6.673286 0.753857
24.749177 6.523132 0.754035
24.972530 6.418390 0.759626
25.430534 6.370017 0.772354
34.306724 7.925259 1.037327
32.253655 7.242800 0.973887
30.754335 6.313832 0.924949
30.469010 6.060663 0.915232
30.617846 5.895202 0.918599
30.071689 5.598909 0.901165
30.103087 5.413858 0.901094
30.337197 5.264003 0.907118
30.390753 5.081408 0.907770
30.263470 4.869434 0.903058
29.675730 4.588245 0.884663
29.974375 4.446279 0.892736
29.905780 4.248734 0.889900
29.997015 4.074083 0.891854
30.015122 3.889128 0.891666
30.639965 3.779079 0.909523
30.733829 3.599350 0.911636
29.879647 3.313591 0.885679
29.629080 3.101888 0.877671
29.724873 2.927644 0.879960
29.660562 2.737659 0.877543
29.672923 2.555279 0.877428
29.995207 2.397715 0.886506
29.427148 2.170677 0.869307
29.317671 1.981811 0.865698
29.319529 1.801285 0.865410
29.396247 1.625010 0.867364
29.874448 1.467638 0.881191
30.044689 1.291257 0.885962
30.121759 1.109450 0.888017
30.207466 0.741552 0.890209
29.663404 0.546099 0.874060
29.563077 0.362812 0.871022
20.506311 0.125827 0.604147
30.264388 -0.000000 0.891618
30.256004 -0.185651 0.891387
30.238691 -0.371103 0.890928
30.363459 -0.558987 0.894688
30.533697 -0.937056 0.899975
30.861825 -1.326376 0.910058
30.579901 -1.502294 0.901999
30.707828 -1.697514 0.906063
30.510956 -1.874482 0.900577
30.564170 -2.066072 0.902504
29.619829 -2.184890 0.874999
29.542685 -2.361542 0.873132
29.634622 -2.551981 0.876295
29.666812 -2.738236 0.877728
30.080543 -2.962675 0.890489
29.843175 -3.124302 0.884013
30.046454 -3.332089 0.890624
29.078140 -3.405446 0.862524
28.987642 -3.575285 0.860475
29.133194 -3.774855 0.865467
29.775045 -4.043936 0.885255
29.607369 -4.206339 0.881020
30.006239 -4.451005 0.893685
30.045426 -4.645405 0.895684
29.771727 -4.790312 0.888385
30.258325 -5.059266 0.903814
28.873261 -5.009986 0.863344
30.919895 -5.560756 0.925544
30.124209 -5.608688 0.902739
29.930767 -5.762911 0.897985
29.798422 -5.927275 0.895089
29.625058 -6.081993 0.890985
30.056317 -6.362971 0.905113
30.059767 -6.556665 0.906411
30.052084 -6.748421 0.907411
35.021030 -8.090272 1.058926
30.157830 -7.357786 0.914539
29.795705 -7.463436 0.904929
29.385125 -7.552506 0.893850
29.892961 -8.075361 0.912244
29.409326 -8.138656 0.898992
29.308145 -8.304593 0.897440
29.193335 -8.465910 0.895498
30.107255 -8.931573 0.925196
22.950352 -6.961913 0.706564
22.595031 -7.158073 0.698276
22.327754 -7.224446 0.691373
29.310062 -9.682736 0.909401
29.201294 -9.845942 0.907884
29.181980 -10.039261 0.909182
29.174685 -10.237377 0.910894
29.347502 -10.500704 0.918284
29.080313 -10.606826 0.911943
29.108566 -10.819957 0.914894
29.314212 -11.101591 0.923481
29.107035 -11.433485 0.921306
29.602384 -11.838236 0.939266
29.192169 -11.882469 0.928546
28.996512 -12.010748 0.924650
29.841195 -12.575696 0.954028
29.631482 -12.701983 0.949797
34.242044 -14.927743 1.100498
29.938264 -13.270720 0.964778
29.884821 -13.467032 0.965701
29.857995 -13.675967 0.967527
29.075597 -13.534048 0.944848
28.878338 -13.658437 0.941143
29.015331 -13.941728 0.948378
29.154514 -14.229450 0.955763
29.057427 -14.403497 0.955459
28.796756 -14.495069 0.949795
28.718479 -14.677216 0.950166
28.342370 -14.705020 0.940689
28.037375 -14.765824 0.933556
28.304429 -15.129032 0.945521
28.500580 -15.459460 0.955225
28.108791 -15.470911 0.945257
28.275128 -15.789282 0.954091
28.068304 -15.900498 0.950386
28.226748 -16.219835 0.959103
28.234083 -16.455314 0.962765
28.121850 -16.621901 0.962398
31.586316 -18.932109 1.084915
28.464550 -17.299276 0.981317
28.190348 -17.370383 0.975521
28.251632 -17.648223 0.981370
28.478585 -18.033865 0.993079
28.362653 -18.205223 0.992913
28.228344 -18.364552 0.992137
27.575988 -18.181935 0.973112
27.352745 -18.276520 0.969173
33.179621 -22.465612 1.180495
28.106283 -19.283077 1.004182
28.512394 -19.820089 1.023017
22.319673 -15.719287 0.804270
21.975412 -15.679430 0.795316
21.915839 -15.840752 0.796663
9.199161 -6.735465 0.335895
28.716130 -21.297333 1.053283
29.617230 -22.248615 1.091321
28.609992 -21.767859 1.059108
28.550113 -22.000193 1.061869
29.941963 -23.366937 1.118948
28.320844 -22.382762 1.063478
32.580881 -26.075960 1.229432
29.001986 -23.504995 1.099805
29.359810 -24.094973 1.118960
29.377271 -24.412495 1.125313
29.037362 -24.432788 1.118015
28.816452 -24.550480 1.115288
28.206778 -24.331334 1.097450
27.745759 -24.232164 1.085277
27.566175 -24.375093 1.084083
27.338794 -24.474576 1.081026
27.179297 -24.633879 1.080676
27.777100 -25.487883 1.110642
27.346519 -25.403616 1.099638
28.434652 -26.741343 1.149970
26.747013 -25.465273 1.088016
26.597884 -25.636261 1.088328
26.760120 -26.111258 1.101501
26.633684 -26.308828 1.102921
26.388805 -26.388805 1.099465
26.563337 -26.891335 1.113591
26.486088 -27.144264 1.117314
30.792697 -31.947739 1.307233
28.142775 -29.559281 1.202414
28.284939 -30.075992 1.216350
27.927379 -30.063302 1.208883
27.975086 -30.487693 1.219023
27.632720 -30.488009 1.212233
28.061254 -31.345214 1.239447
21.265748 -24.049768 0.945794
27.495606 -31.482391 1.231436
28.958961 -33.571484 1.306176
27.636445 -32.438644 1.255479
27.349206 -32.503405 1.251466
27.360964 -32.925370 1.261225
26.947249 -32.835318 1.251419
26.472980 -32.664078 1.238678
26.163549 -32.690321 1.233562
26.556353 -33.601677 1.261779
26.864617 -34.423826 1.286438
25.749798 -33.416053 1.242849
25.512024 -33.531032 1.241280
25.881982 -34.453948 1.269542
25.569061 -34.475887 1.264545
26.076208 -35.614354 1.300410
26.072715 -36.071862 1.311249
25.681307 -35.993483 1.302647
25.182308 -35.756130 1.288441
28.171019 -40.525710 1.454052
29.578788 -43.112923 1.540340
27.352619 -40.397277 1.437292
8.763301 -13.115208 0.464703
8.738666 -13.253669 0.467700
7.448096 -11.448546 0.402380
7.421895 -11.562870 0.404790
7.320822 -11.560841 0.403139
7.373526 -11.803689 0.410022
7.301932 -11.850287 0.410076
8.560329 -14.085325 0.485593
6.917659 -11.541417 0.396420
6.823342 -11.544107 0.395067
6.820895 -11.703314 0.399076
6.861269 -11.940400 0.405717
6.711098 -11.846744 0.401128
6.720109 -12.034235 0.406073
6.702950 -12.178457 0.409544
6.667269 -12.291570 0.411964
6.108203 -11.427644 0.381745
5.739268 -10.897734 0.362860
5.636296 -10.863365 0.360557
4.986441 -9.756824 0.322809
4.931958 -9.798117 0.323168
4.921286 -9.928139 0.326455
6.540610 -13.400962 0.439319
4.556012 -9.481909 0.309920
4.423968 -9.353694 0.304836
4.264818 -9.162235 0.297738
4.228151 -9.231092 0.299127
4.155279 -9.221020 0.297969
4.139851 -9.339355 0.300966
3.816531 -8.754561 0.281361
3.725866 -8.691788 0.278604
3.563684 -8.456359 0.270351
3.589000 -8.664612 0.276300
3.594335 -8.830358 0.280877
3.532038 -8.832122 0.280238
3.384848 -8.617047 0.272750
3.262110 -8.456703 0.267036
3.190496 -8.424637 0.265400
3.130265 -8.421246 0.264683
3.099886 -8.498834 0.266519
3.065000 -8.566102 0.268034
3.067414 -8.741579 0.272930
1.957612 -5.690359 0.177286
1.929704 -5.723155 0.177936
1.896256 -5.740049 0.178096
1.862982 -5.757703 0.178286
4.380497 -14.127909 0.435770
4.319776 -14.240394 0.438413
4.266474 -14.381767 0.441952
4.915424 -16.950053 0.519938
1.540015 -5.434944 0.166422
1.525159 -5.511216 0.168468
1.517660 -5.617998 0.171444
1.463446 -5.552409 0.169166
1.429739 -5.562798 0.169212
3.680981 -14.695300 0.446313
3.588218 -14.707261 0.445999
3.497932 -14.729101 0.446002
3.434638 -14.867800 0.449555
3.343490 -14.889236 0.449575
1.285453 -5.893305 0.177705
3.136245 -14.814458 0.446121
3.028225 -14.750321 0.443622
2.924777 -14.703846 0.441676
1.121821 -5.826389 0.174804
1.081681 -5.809697 0.174101
1.045711 -5.814545 0.174050
1.002394 -5.776939 0.172737
0.965766 -5.776025 0.172529
0.888502 -5.522027 0.164777
0.852083 -5.511078 0.164291
0.842532 -5.679890 0.169166
0.823604 -5.797145 0.172504
0.863316 -6.356495 0.188988
0.848451 -6.548090 0.194526
0.783312 -6.350928 0.188522
0.730588 -6.238286 0.185042
0.618887 -5.580688 0.165420
0.585399 -5.591706 0.165637
0.783491 -7.954920 0.235493
0.561689 -6.085500 0.180047
0.685930 -7.965289 0.235533
0.466281 -5.833137 0.172398
0.424026 -5.748375 0.169813
0.387784 -5.736638 0.169393
0.398907 -6.493005 0.191651
0.445267 -8.054821 0.237665
0.222375 -6.037530 0.177992
0.183054 -5.964759 0.175810
0.146901 -5.984080 0.176350
0.110395 -5.996497 0.176692
0.073479 -5.987295 0.176405
0.036395 -5.931464 0.174750
0.000000 -19.968968 0.588305
-0.122773 -20.008592 0.589483
-0.245354 -19.992236 0.589035
-0.368304 -20.005812 0.589490
-0.153846 -6.267001 0.184687
-0.192121 -6.260203 0.184518
-0.744934 -20.225092 0.596254
-1.314529 -30.586172 0.901930
-0.298713 -6.080439 0.179352
-0.328264 -5.938263 0.175214
-0.369615 -6.016226 0.177578
-0.404261 -5.980381 0.176590
-0.449854 -6.098521 0.180156
-0.470229 -5.882529 0.173858
-0.506164 -5.877773 0.173806
-0.545865 -5.914060 0.174974
-0.637844 -6.476135 0.191716
-0.553805 -5.289914 0.156698
-0.582554 -5.253061 0.155709
-0.774001 -6.608976 0.196037
-0.723066 -5.580404 0.165778
-0.840833 -6.190958 0.184066
-0.847867 -5.967927 0.177586
-0.801326 -5.402099 0.160892
-0.843206 -5.453666 0.162579
-0.970930 -6.034318 0.180063
-1.102058 -6.591161 0.196877
-0.953734 -5.496505 0.164352
-0.994215 -5.528207 0.165479
-1.120379 -6.017547 0.180329
-1.148247 -5.963638 0.178922
-1.193527 -6.000264 0.180237
-1.109812 -5.405836 0.162583
-1.126401 -5.320702 0.160227
-1.130067 -5.180917 0.156223
-1.167687 -5.199948 0.157010
-1.202729 -5.206351 0.157424
-1.437130 -6.051469 0.183241
-1.522892 -6.241974 0.189288
-1.319570 -5.268017 0.159996
-1.348458 -5.246551 0.159592
-1.381700 -5.242258 0.159716
-1.409081 -5.216065 0.159179
-1.722224 -6.223317 0.190236
-1.729282 -6.102894 0.186876
-1.752675 -6.043821 0.185393
-1.829100 -6.165675 0.189471
-1.879033 -6.194341 0.190703
-1.895298 -6.112687 0.188543
-1.829944 -5.776364 0.178513
-1.858183 -5.742869 0.177827
-1.789809 -5.417828 0.168099
-1.856337 -5.505563 0.171171
-1.962741 -5.705267 0.177751
-2.004215 -5.711653 0.178330
-2.271686 -6.348938 0.198659
-2.251782 -6.173620 0.193601
-2.113191 -5.685046 0.178683
-2.155760 -5.692374 0.179326
-2.221938 -5.760159 0.181888
-2.328753 -5.928472 0.187650
-2.357636 -5.895444 0.187059
-2.445583 -6.008168 0.191108
-2.525200 -6.096373 0.194403
-2.452409 -5.819385 0.186047
-2.456606 -5.730829 0.183694
-2.540434 -5.827382 0.187285
-2.570481 -5.798912 0.186873
-2.598579 -5.766532 0.186340
-2.618321 -5.716439 0.185237
-2.660186 -5.714957 0.185715
-2.682974 -5.672673 0.184872
-2.708876 -5.637676 0.184270
-2.835669 -5.809960 0.190466
-2.921005 -5.892797 0.193766
-2.964204 -5.888862 0.194231
-3.008405 -5.886458 0.194756
-3.065608 -5.908635 0.196109
-3.127686 -5.938857 0.197745
-3.258435 -6.096104 0.203643
-3.026207 -5.579021 0.186986
-10.609348 -19.275913 0.648221
-10.756638 -19.262770 0.649986
-3.601213 -6.357030 0.215248
-3.249111 -5.654302 0.192125
-3.609906 -6.107438 0.209011
-3.408920 -5.687440 0.195350
-3.403181 -5.599657 0.193049
-3.444059 -5.589354 0.193418
-3.534553 -5.658184 0.196547
-3.562113 -5.625191 0.196156
-3.650805 -5.687737 0.199115
-3.902428 -5.998463 0.210827
-3.918358 -5.942854 0.209714
-9.433978 -14.118946 0.500268
-4.042064 -5.969752 0.212397
-4.134453 -6.026222 0.215305
-7.874205 -11.327519 0.406428
-7.933070 -11.264094 0.405892
-8.006997 -11.222158 0.406143
-8.095886 -11.200740 0.407158
-10.409580 -14.217193 0.519122
-10.458473 -14.101619 0.517235
-10.605522 -14.118011 0.520213
-10.707710 -14.073386 0.520980
-10.855093 -14.086882 0.523936
-11.002042 -14.097814 0.526843
-11.146142 -14.103182 0.529590
-11.291584 -14.108388 0.532377
-11.426739 -14.099051 0.534660
-11.576525 -14.106037 0.537609
-11.721661 -14.105498 0.540319
-11.869860 -14.106839 0.543150
-12.022237 -14.111260 0.546151
-12.213045 -14.158314 0.550862
-12.213148 -13.984020 0.546986
-7.885758 -8.918128 0.350719
-7.901977 -8.826732 0.349025
-8.225361 -9.075287 0.360842
-8.017581 -8.737687 0.349369
-8.034019 -8.648471 0.347766
-6.998656 -7.441823 0.300966
-8.203031 -8.615913 0.350478
-8.162065 -8.468226 0.346502
-8.202168 -8.405991 0.346008
-8.434848 -8.538999 0.353606
-8.402051 -8.402051 0.350064
-8.467716 -8.364434 0.350655
-8.513321 -8.306895 0.350426
-8.558380 -8.248959 0.350190
-14.973308 -14.081634 0.605559
-15.052570 -13.983122 0.605283
-12.387541 -11.366637 0.495305
-12.451978 -11.285815 0.495103
-15.831397 -14.172781 0.626002
-7.449652 -6.587275 0.292969
-8.596075 -7.507508 0.336236
-7.783581 -6.714163 0.302838
-7.411174 -6.314027 0.286836
-7.414342 -6.238620 0.285472
-7.529387 -6.256917 0.288418
-7.691516 -6.312264 0.293139
-7.754812 -6.284977 0.294076
-8.017956 -6.417135 0.302556
-8.035121 -6.350383 0.301728
-8.365458 -6.528467 0.312622
-8.158514 -6.286802 0.303441
-7.945571 -6.045373 0.294136
-7.919873 -5.949449 0.291828
-7.935818 -5.885603 0.291079
-7.924737 -5.802354 0.289361
-8.057466 -5.823930 0.292897
-8.024988 -5.725819 0.290434
-8.380222 -5.902018 0.301974
-8.272923 -5.750835 0.296830
-13.127088 -9.006194 0.469005
-13.304574 -9.008403 0.473362
-8.430642 -5.633175 0.298718
-13.732004 -9.054051 0.484580
-13.914557 -9.052413 0.489053
-14.111252 -9.057633 0.494003
-14.305114 -9.058613 0.498835
-14.504637 -9.060753 0.503844
-11.933422 -7.353159 0.412953
-11.934602 -7.253232 0.411446
-11.978493 -7.179632 0.411433
-12.034338 -7.113102 0.411844
-12.095361 -7.049386 0.412444
-15.907019 -9.140593 0.540497
-16.133593 -9.139567 0.546280
-16.379170 -9.146390 0.552684
-16.618862 -9.146923 0.558868
-16.871132 -9.151343 0.565452
-17.122693 -9.152270 0.571991
-17.394248 -9.160644 0.579174
-17.659720 -9.162485 0.586130
-17.868342 -9.132013 0.591183
-17.909969 -9.015121 0.590719
-18.981130 -9.408770 0.624133
-18.921051 -9.234801 0.620283
-19.024503 -9.141183 0.621824
-19.022927 -8.997175 0.619956
-19.891144 -9.258888 0.646387
-20.211270 -9.257443 0.654932
-20.560504 -9.265204 0.664394
-20.913147 -9.270160 0.673939
-21.287355 -9.280175 0.684150
-21.808013 -9.348334 0.699026
-22.219077 -9.363578 0.710347
-34.975215 -14.487208 1.115300
-38.012482 -15.472715 1.209103
-23.575451 -9.428016 0.748035
-23.623391 -9.279464 0.747736
-22.603680 -8.719201 0.713752
-22.947075 -8.690291 0.722898
-23.816454 -8.852824 0.748561
-23.153333 -8.445005 0.726076
-23.701862 -8.480662 0.741632
-23.454861 -8.230295 0.732310
-23.448700 -8.066883 0.730558
-20.087197 -6.772898 0.624522
-20.104528 -6.641639 0.623782
-20.161746 -6.523605 0.624303
-21.422955 -6.786761 0.662055
-23.797178 -7.378548 0.734015
-38.110749 -11.560769 1.173301
-38.159710 -11.320402 1.172648
-38.175703 -11.070749 1.171030
-38.220876 -10.830054 1.170355
-21.858768 -6.049136 0.668184
-37.718123 -10.189270 1.151044
-37.750787 -9.949962 1.150156
-38.570246 -9.913247 1.173247
-39.652461 -9.932424 1.204290
-40.795766 -9.953187 1.237136
-42.010400 -9.976817 1.272089
-43.940811 -10.150847 1.328632
-45.350089 -10.183703 1.369328
-47.570925 -10.376216 1.434436
-48.414642 -10.249458 1.457954
-55.146903 5.773366 1.209886
-46.413243 5.147132 1.018949
-46.171948 5.407363 1.014361
-45.712889 5.638147 1.005017
-45.017641 5.833039 0.990500
-44.996970 6.111321 0.990852
-45.131001 6.411792 0.994651
-44.542082 6.607194 0.982546
-39.716850 6.140730 0.876922
-39.521272 6.359027 0.873449
-44.577010 7.453385 0.986176
-44.463635 7.715172 0.984697
-41.024885 7.378077 0.909528
-38.324247 7.135415 0.850609
-38.232718 7.361380 0.849564
-39.920683 7.940717 0.888138
-38.200783 7.842580 0.850929
-38.191366 8.085174 0.851808
-40.186929 8.765612 0.897499
-39.202357 8.803184 0.876700
-38.289069 8.845227 0.857474
-37.895710 8.999642 0.849885
-37.917427 9.250941 0.851629
-38.294068 9.592165 0.861394
-38.284460 9.839795 0.862520
-38.312989 10.098141 0.864543
-38.335500 10.356050 0.866468
-38.331949 10.607879 0.867843
-38.352361 10.867311 0.869798
-38.348736 11.120927 0.871247
-38.356768 11.378861 0.873000
-38.349729 11.633263 0.874447
-38.403599 11.907413 0.877325
-38.401270 12.165466 0.878961
-38.355630 12.410482 0.879643
-38.361476 12.672920 0.881543
-38.410905 12.951191 0.884489
-38.402311 13.211263 0.886141
-38.418676 13.481087 0.888411
-38.416599 13.745679 0.890296
-18.004891 6.567149 0.418185
-17.977194 6.682311 0.418487
-17.385591 6.584101 0.405648
-17.044236 6.574687 0.398617
-17.183003 6.749626 0.402823
-16.514756 6.604386 0.388100
-16.397142 6.674342 0.386291
-16.142770 6.686554 0.381258
-16.468651 6.940230 0.389953
-16.087288 6.896059 0.381918
-21.407769 9.332669 0.509578
-15.968031 7.078141 0.381120
-15.970030 7.196593 0.382215
-20.461014 9.371834 0.491065
-20.068370 9.341383 0.483008
-13.652088 6.456957 0.329528
-13.882536 6.670492 0.336072
-13.674191 6.673965 0.332013
-13.554414 6.718797 0.330100
-13.509113 6.799916 0.330007
-12.886885 6.586128 0.315788
-13.056748 6.774301 0.320963
-11.921756 6.278567 0.294004
-12.636430 6.754313 0.312645
-12.613491 6.841887 0.313110
-12.575360 6.921404 0.313212
-12.520784 6.991805 0.312915
-12.039032 6.820028 0.301915
-11.452654 6.580997 0.288217
-11.376975 6.630698 0.287331
-11.311975 6.686137 0.286720
-11.256045 6.746614 0.286347
-11.039681 6.709345 0.281885
-10.899415 6.716023 0.279350
-10.393368 6.492527 0.267396
-10.635802 6.735047 0.274691
-9.816636 6.301035 0.254529
-9.915348 6.450642 0.258109
-10.122606 6.674233 0.264566
-10.088435 6.740877 0.264749
-10.003776 6.773463 0.263613
-9.784111 6.712654 0.258905
-9.757525 6.782840 0.259298
-9.557015 6.730810 0.255062
-9.824582 7.009828 0.263346
-9.398863 6.793491 0.253047
-9.410199 6.889984 0.254486
-9.374214 6.952391 0.254662
-9.285012 6.974949 0.253396
-9.157759 6.967664 0.251085
-9.056237 6.978570 0.249471
-8.931147 6.969936 0.247199
-8.827055 6.976270 0.245498
-8.676736 6.944387 0.242498
-8.702410 7.052968 0.244420
-8.565765 7.029742 0.241789
-8.457978 7.028575 0.239960
-8.286322 7.059619 0.237530
-8.174438 7.051318 0.235558
-8.009460 7.082279 0.233291
-7.827187 7.007152 0.229230
-7.806476 7.075378 0.229891
-10.482077 9.618209 0.310416
-10.418076 9.677897 0.310274
-10.357450 9.740654 0.310242
-10.321995 9.827357 0.310981
-10.212415 9.843194 0.309493
-10.094681 9.849912 0.307751
-9.957410 9.835958 0.305400
-9.877249 9.877249 0.304795
-9.797799 9.918780 0.304215
-9.429571 9.663894 0.294618
-9.454598 9.809242 0.297275
-9.218184 9.682161 0.291704
-8.907953 9.472021 0.283720
-8.901521 9.582321 0.285383
-8.816796 9.608684 0.284551
-8.773750 9.680341 0.285074
-8.681049 9.696977 0.283990
-8.671231 9.806431 0.285632
-8.563806 9.805534 0.284070
-8.779038 10.177345 0.293275
-8.725545 10.241724 0.293582
-8.649421 10.279481 0.293137
-8.594884 10.342828 0.293434
-11.381796 13.868759 0.391479
-11.424349 14.096102 0.395910
-11.452860 14.309896 0.399934
-11.476343 14.520983 0.403857
-11.459683 14.684227 0.406434
-5.176656 6.717855 0.185056
-5.068850 6.662105 0.182660
-5.013462 6.673893 0.182136
-5.008234 6.752822 0.183448
-4.838928 6.608910 0.178729
-4.749121 6.570456 0.176898
-4.568588 6.403078 0.171633
-4.513062 6.408055 0.171021
-4.485065 6.452036 0.171457
-4.570618 6.661960 0.176287
-4.472670 6.605718 0.174069
-4.530583 6.780497 0.177939
-4.335151 6.574992 0.171845
-4.420093 6.794171 0.176861
-4.397421 6.850920 0.177633
-4.354418 6.876377 0.177597
-4.249629 6.802892 0.175022
-4.223582 6.854439 0.175678
-4.187864 6.890789 0.175948
-4.153645 6.929938 0.176293
-4.186492 7.082938 0.179529
-4.035951 6.924898 0.174892
-4.049433 7.047070 0.177347
-3.900388 6.885147 0.172666
-3.938197 7.052443 0.176252
-3.558495 6.465359 0.161031
-3.835866 7.071684 0.175543
-3.510592 6.567855 0.162499
-3.371028 6.400916 0.157854
-3.316211 6.391645 0.157120
-3.236645 6.333048 0.155189
-3.183589 6.324705 0.154503
-3.152736 6.360288 0.154896
-3.080209 6.310995 0.153233
-3.071678 6.392734 0.154757
-2.998187 6.339134 0.153011
-2.967283 6.374702 0.153427
-2.997590 6.544476 0.157068
-3.118142 6.919498 0.165606
-3.018091 6.808704 0.162508
-2.941288 6.746882 0.160599
-2.847126 6.641842 0.157680
-2.757503 6.543350 0.154937
-2.801243 6.762799 0.159723
-2.726612 6.698583 0.157808
-2.674382 6.687490 0.157157
-2.613848 6.654259 0.155997
-2.514432 6.518419 0.152447
-2.492228 6.580831 0.153547
-2.491302 6.702265 0.156020
-2.413146 6.616026 0.153665
-2.395225 6.694205 0.155137
-2.318378 6.606961 0.152782
-2.513785 7.307035 0.168611
-2.186472 6.484683 0.149323
-2.097544 6.349357 0.145908
-2.066488 6.386655 0.146471
-2.049787 6.470318 0.148098
-2.005258 6.467326 0.147745
-1.987538 6.552035 0.149399
-1.907527 6.430042 0.146348
-1.873021 6.458814 0.146738
-1.843677 6.506611 0.147564
-1.828214 6.606317 0.149568
-1.721495 6.372543 0.144034
-1.685443 6.394677 0.144298
-1.846404 7.183948 0.161849
-1.676666 6.693628 0.150568
-1.620892 6.643654 0.149217
-1.558857 6.564038 0.147211
-1.564142 6.770830 0.151631
-1.694879 7.547637 0.168791
-1.689093 7.743837 0.172944
-1.764882 8.336649 0.185938
-1.437439 7.001688 0.155964
-1.400900 7.042802 0.156685
-1.363336 7.080744 0.157340
-1.406059 7.551928 0.167615
-1.238783 6.888102 0.152710
-1.182876 6.817084 0.150972
-1.159122 6.932445 0.153366
-1.071154 6.657207 0.147129
-1.042857 6.744966 0.148924
-1.008793 6.800733 0.150016
-0.943747 6.642800 0.146402
-0.915224 6.738692 0.148389
-0.992002 7.655974 0.168450
-0.876979 7.110358 0.156324
-0.811484 6.929030 0.152225
-0.793445 7.154737 0.157074
-0.764039 7.298066 0.160115
-0.716922 7.279027 0.159597
-0.647999 7.020601 0.153841
-0.598258 6.947211 0.152150
-0.562134 7.032242 0.153934
-0.521540 7.070347 0.154695
-0.259662 3.841273 0.084008
-0.233805 3.805641 0.083196
-0.390283 7.060176 0.154289
-0.339857 6.917957 0.151132
-0.292466 6.805026 0.148623
-0.250971 6.813903 0.148781
-0.212724 6.931556 0.151318
-0.169120 6.889194 0.150368
-0.127995 6.952540 0.151731
-0.083427 6.797929 0.148343
-0.041192 6.713196 0.146485
0.000000 6.635402 0.144785
0.042807 6.976405 0.152229
0.084659 6.898313 0.150533
0.129269 7.021754 0.153241
0.172347 7.020653 0.153237
0.216002 7.038366 0.153650
0.258489 7.018008 0.153237
0.300875 7.000698 0.152897
0.342946 6.980823 0.152506
0.386749 6.996246 0.152892
0.427571 6.959575 0.152145
0.470518 6.960547 0.152226
0.510573 6.921664 0.151442
0.553302 6.921757 0.151515
0.591772 6.871898 0.150500
0.639190 6.925166 0.151750
0.680510 6.909334 0.151492
0.719828 6.875762 0.150850
0.768366 6.928585 0.152109
0.815738 6.965360 0.153023
0.853093 6.916694 0.152066
0.870566 6.718768 0.147830
0.912836 6.721111 0.148002
0.997477 7.020990 0.154737
1.042775 7.029816 0.155070
1.081310 6.993670 0.154416
1.089237 6.769597 0.149613
1.120246 6.699936 0.148223
1.217746 7.018041 0.155422
1.264712 7.032276 0.155907
1.315505 7.065565 0.156821
1.353512 7.029721 0.156206
1.407185 7.074399 0.157388
1.439589 7.012159 0.156197
1.478832 6.985456 0.155801
1.519647 6.966991 0.155595
1.560127 6.947563 0.155372
1.620409 7.014398 0.157086
1.655904 6.972682 0.156376
1.689606 6.925297 0.155543
1.740381 6.947992 0.156290
1.777145 6.914478 0.155778
1.829637 6.941759 0.156643
1.867055 6.911369 0.156212
1.941259 7.014808 0.158817
1.940178 6.847177 0.155288
2.037070 7.024509 0.159590
2.065021 6.960936 0.158431
2.130641 7.023782 0.160156
2.153725 6.946160 0.158684
2.173979 6.862340 0.157071
2.219864 6.860676 0.157342
2.333869 7.064722 0.162347
2.387032 7.079508 0.163020
2.451992 7.127415 0.164467
2.386976 6.802452 0.157303
2.412647 6.742898 0.156265
2.452678 6.724410 0.156183
2.482373 6.678244 0.155461
2.567800 6.780382 0.158203
2.648077 6.864881 0.160550
2.752390 7.006955 0.164265
2.795876 6.991293 0.164297
2.858456 7.022491 0.165439
6.180687 14.921499 0.352414
3.062860 7.267940 0.172094
3.100666 7.233306 0.171721
3.141055 7.205118 0.171506
3.183327 7.181471 0.171405
3.301440 7.326256 0.175341
3.430357 7.489312 0.179744
3.360423 7.219296 0.173755
3.506500 7.413871 0.178953
3.533897 7.354698 0.178044
3.543948 7.261143 0.176303
3.514681 7.090472 0.172679
3.717701 7.385804 0.180424
3.896880 7.624910 0.186845
3.757644 7.242462 0.178035
3.760172 7.139822 0.176076
3.816267 7.139734 0.176648
3.916906 7.221087 0.179252
3.924619 7.130562 0.177599
3.949009 7.071805 0.176736
4.014986 7.087442 0.177739
4.297277 7.478384 0.188201
4.381132 7.517161 0.189850
4.297051 7.269988 0.184270
4.706404 7.852160 0.199754
4.255323 7.001788 0.178782
4.414574 7.164400 0.183622
4.535831 7.261050 0.186809
4.646447 7.337541 0.189507
4.692311 7.310341 0.189545
6.693702 10.288959 0.267835
4.859987 7.370995 0.192649
6.710841 10.043483 0.263569
4.980342 7.355502 0.193827
8.555999 12.470901 0.330002
5.107869 7.347977 0.195266
7.846368 11.140986 0.297336
5.240593 7.344921 0.196879
8.641449 11.955531 0.321881
5.433684 7.421215 0.200697
7.370330 9.937740 0.269970
5.525945 7.356106 0.200755
7.446028 9.786484 0.268324
5.663894 7.350154 0.202474
8.123659 10.409507 0.288117
5.848225 7.399743 0.205802
8.359556 10.444934 0.291915
6.001679 7.405260 0.207988
6.087735 7.417927 0.209389
8.636294 10.392659 0.294848
6.240316 7.416359 0.211490
8.676128 10.183721 0.291919
6.401276 7.420858 0.213843
6.435630 7.368778 0.213476
6.518119 7.371443 0.214708
6.547463 7.313702 0.214192
6.600096 7.282083 0.214448
6.578303 7.169139 0.212307
6.618019 7.124174 0.212174
6.948528 7.388521 0.221312
6.969808 7.320618 0.220555
7.007861 7.270728 0.220343
7.270069 7.450729 0.227146
7.321148 7.411548 0.227317
7.362041 7.362041 0.227180
7.414594 7.324157 0.227410
7.549767 7.366706 0.230165
7.599775 7.325012 0.230315
7.627508 7.261991 0.229801
7.725901 7.265816 0.231418
7.845137 7.287760 0.233646
7.975132 7.317871 0.236175
8.094066 7.336034 0.238360
8.219140 7.358041 0.240709
8.313900 7.351477 0.242159
9.056599 7.909713 0.262373
9.308358 8.029444 0.268234
9.471167 8.069060 0.271494
9.615567 8.090787 0.274205
9.804859 8.147832 0.278172
10.072691 8.266444 0.284326
10.130868 8.210679 0.284541
11.163294 8.934492 0.311992
37.243803 29.434828 1.035824
37.535574 29.293049 1.038920
37.528796 28.191824 1.024194
37.410019 27.745161 1.016287
34.212174 24.728534 0.921100
33.904314 24.190688 0.908798
5.908174 4.161005 0.157680
5.929162 4.121594 0.157562
33.472697 22.964850 0.885746
33.600203 22.750384 0.885410
33.988729 22.710542 0.891959
34.158339 22.521938 0.892766
35.770702 23.271394 0.931158
36.284645 23.290136 0.940799
36.072743 22.842813 0.931653
34.500778 21.551938 0.887621
33.248583 20.487176 0.852155
33.496637 20.357517 0.855295
25.427641 15.240741 0.646863
25.288423 14.947155 0.640976
25.379862 14.791824 0.640981
25.465254 14.633008 0.640858
25.594439 14.499071 0.641858
25.838386 14.428567 0.645744
34.745900 19.123937 0.865408
34.928093 18.945912 0.867034
34.366402 18.369225 0.850277
31.458834 16.567728 0.775810
31.549791 16.369143 0.775561
31.993045 16.350756 0.783976
32.669979 15.451749 0.788573
32.409805 15.086048 0.780044
31.727649 14.532332 0.761465
33.495426 15.094083 0.801654
40.630413 18.010223 0.969754
31.359430 13.671074 0.746461
31.357191 13.441734 0.744430
32.007468 13.488608 0.757889
32.021193 13.263613 0.756273
32.120827 13.074558 0.756717
32.111688 12.841727 0.754631
32.449955 12.746612 0.760728
31.608978 12.192928 0.739245
30.892470 11.699293 0.720796
31.070185 11.549112 0.723275
31.379526 11.445447 0.728827
31.708868 11.345615 0.734846
32.049187 11.246038 0.741120
32.236323 11.090024 0.743860
32.214768 10.862010 0.741810
32.411969 10.707468 0.744824
32.382469 10.477785 0.742655
32.815342 10.395852 0.751105
32.258213 10.001975 0.736935
31.984344 9.702345 0.729304
24.959417 7.404423 0.568076
24.987032 7.246105 0.567682
24.796905 7.026313 0.562372
24.938998 6.901550 0.564624
24.776305 6.693134 0.560000
24.502175 6.458030 0.552898
24.473760 6.290197 0.551375
31.804444 7.966598 0.715416
33.412857 8.151934 0.750456
31.806939 7.553653 0.713333
32.261169 7.452711 0.722481
32.204987 7.231872 0.720215
30.729345 6.702714 0.686282
30.940444 6.550142 0.690086
30.889134 6.341507 0.688061
30.394198 6.045782 0.676197
30.275342 5.829256 0.672744
30.768707 5.728684 0.682913
30.612115 5.505403 0.678675
30.338344 5.264202 0.671877
30.227580 5.054125 0.668724
30.145786 4.850498 0.666244
29.965268 4.633011 0.661613
29.948018 4.442369 0.660618
29.873252 4.244113 0.658382
29.859200 4.055365 0.657512
29.760559 3.856144 0.654806
30.478108 3.759116 0.670074
29.779963 3.487639 0.654242
29.731442 3.297155 0.652719
29.744675 3.113990 0.652578
29.777500 2.932828 0.652891
29.755645 2.746435 0.652030
29.693940 2.557089 0.650322
29.890442 2.389341 0.654292
29.697307 2.190605 0.649758
30.094809 2.034344 0.658170
30.086981 1.848434 0.657738
30.143655 1.666327 0.658741
30.590520 1.502816 0.668293
30.719507 1.320260 0.670921
29.993062 1.104710 0.654895
30.041507 0.921951 0.655817
29.915160 0.734376 0.652948
30.032250 0.552889 0.655417
30.441602 0.373593 0.664288
20.589896 0.126340 0.449282
20.596290 -0.000000 0.449413
30.259112 -0.185670 0.660269
30.767398 -0.377592 0.671398
30.890636 -0.568692 0.674150
31.288189 -0.768082 0.682916
33.260230 -1.020731 0.726082
30.105708 -1.108859 0.657354
30.694758 -1.319196 0.670380
30.801910 -1.513201 0.672911
30.870413 -1.706501 0.674623
29.747218 -1.827561 0.650310
29.564241 -1.998479 0.646566
29.403855 -2.168959 0.643338
29.380252 -2.348558 0.643124
29.357381 -2.528106 0.642951
29.538287 -2.726373 0.647267
30.098457 -2.964439 0.659928
29.934237 -3.133835 0.656737
29.624005 -3.285240 0.650361
29.728305 -3.481589 0.653107
29.954707 -3.694561 0.658567
30.581408 -3.962503 0.672867
29.692807 -4.032767 0.653848
29.623848 -4.208680 0.652886
29.720098 -4.408560 0.655591
29.363049 -4.539901 0.648317
29.565774 -4.757173 0.653425
29.443426 -4.923013 0.651376
31.406061 -5.449469 0.695522
31.078641 -5.589305 0.689018
30.362013 -5.652963 0.673886
30.032316 -5.782463 0.667344
29.970597 -5.961522 0.666773
29.878676 -6.134061 0.665552
29.930421 -6.336319 0.667559
30.016166 -6.547155 0.670354
33.680029 -7.563103 0.753202
31.375430 -7.248095 0.702645
31.223935 -7.415199 0.700258
31.167448 -7.604108 0.700024
31.055677 -7.779042 0.698573
30.370154 -7.805676 0.684217
31.144877 -8.208845 0.702792
32.273718 -8.718505 0.729458
32.131499 -8.891983 0.727463
30.409536 -8.616677 0.689662
30.124503 -8.735944 0.684400
30.118406 -8.934881 0.685495
22.994241 -6.975227 0.524313
22.760313 -7.057058 0.519956
22.666641 -7.180759 0.518813
22.417002 -7.253324 0.514108
29.235484 -9.658099 0.671829
29.169451 -9.835205 0.671686
28.827714 -9.917385 0.665205
28.996112 -10.174716 0.670519
29.456895 -10.539846 0.682657
29.203631 -10.651806 0.678290
29.101729 -10.817416 0.677452
29.359033 -11.118565 0.685017
28.959562 -11.170936 0.677283
29.705496 -11.668566 0.696389
29.285166 -11.711378 0.688207
29.069362 -11.832481 0.684829
29.127498 -12.065005 0.687930
29.042606 -12.239154 0.687686
28.941495 -12.406209 0.687081
28.846155 -12.575417 0.686637
33.570135 -14.880617 0.801242
29.431684 -13.262835 0.704396
29.775163 -13.638028 0.714605
29.853599 -13.896191 0.718521
28.859183 -13.649377 0.696590
28.843962 -13.859386 0.698262
29.165521 -14.234822 0.708147
28.994568 -14.372338 0.706125
28.579949 -14.385937 0.698164
28.583063 -14.608009 0.700416
28.324741 -14.695873 0.696283
28.377437 -14.944916 0.699819
27.967695 -14.949044 0.691963
28.612970 -15.520424 0.710271
28.119948 -15.477052 0.700377
28.276992 -15.790323 0.706688
28.600472 -16.201967 0.717244
27.774362 -15.959882 0.698969
28.006483 -16.322665 0.707318
28.361748 -16.763697 0.718875
28.263640 -16.940574 0.719009
28.114692 -17.086651 0.717874
28.111277 -17.321661 0.720487
28.163310 -17.593050 0.724574
27.835670 -17.626744 0.718913
27.566688 -17.694315 0.714757
27.536256 -17.914300 0.716805
27.835161 -18.352818 0.727503
28.744741 -19.206622 0.754342
28.336058 -19.186081 0.746692
27.813341 -19.082096 0.735990
28.211436 -19.610882 0.749694
22.109593 -15.571333 0.590071
27.912435 -19.915490 0.748187
21.892553 -15.823921 0.589417
9.232597 -6.759947 0.249683
27.492768 -20.390026 0.746873
27.562128 -20.704811 0.752195
28.373358 -21.587817 0.777934
28.267380 -21.782324 0.778679
28.439742 -22.194593 0.787163
31.157414 -24.624583 0.866550
28.094525 -22.485325 0.785187
30.943809 -25.078768 0.869103
29.368162 -24.101827 0.828987
28.968779 -24.073039 0.821867
28.525277 -24.001906 0.813448
28.315733 -24.123887 0.811678
27.792554 -23.974022 0.800883
27.586902 -24.093424 0.799202
27.453845 -24.275766 0.799647
27.330147 -24.466835 0.800402
27.179843 -24.634374 0.800412
27.401601 -25.143331 0.811471
27.410657 -25.463198 0.816350
27.058672 -25.447303 0.810503
27.505838 -26.187735 0.828694
27.287015 -26.300477 0.826948
28.083948 -27.402987 0.856179
27.655025 -27.317713 0.848197
26.332920 -26.332920 0.812588
26.806561 -27.137562 0.832326
26.531841 -27.191154 0.828961
27.788753 -28.831116 0.873743
27.713502 -29.108401 0.876976
27.623820 -29.373010 0.879825
27.269662 -29.355282 0.874266
27.212317 -29.656416 0.878245
21.501976 -23.723775 0.698635
21.350375 -23.848974 0.698451
21.161263 -23.931604 0.697055
20.996519 -24.040955 0.696475
27.252471 -31.593188 0.910404
27.107401 -31.817672 0.912062
26.863530 -31.926199 0.910431
26.503732 -31.893802 0.904853
26.308620 -32.057146 0.904890
26.296512 -32.446340 0.911304
26.211308 -32.749993 0.915298
26.155976 -33.095081 0.920440
26.081560 -33.420431 0.925020
25.869666 -33.571609 0.924794
25.659114 -33.724356 0.924647
25.802844 -34.348600 0.937404
25.779467 -34.759587 0.944285
25.433840 -34.737020 0.939415
25.821780 -35.724690 0.961822
25.621345 -35.909442 0.962545
25.560134 -36.292602 0.968594
25.362346 -36.485263 0.969564
26.526718 -38.664341 1.023126
8.832407 -13.044644 0.343744
8.723207 -13.055201 0.342605
7.400392 -11.223950 0.293351
7.429880 -11.420546 0.297292
7.434314 -11.582218 0.300307
8.460190 -13.360100 0.345052
7.200234 -11.526281 0.296543
7.167016 -11.631331 0.298109
7.110227 -11.699299 0.298727
6.822277 -11.382281 0.289558
6.905958 -11.683881 0.296147
6.775683 -11.625740 0.293614
6.785184 -11.807991 0.297160
6.777489 -11.963942 0.300032
6.473841 -11.593223 0.289734
6.672822 -12.123718 0.301963
5.967890 -11.002216 0.273112
5.889040 -11.017619 0.272593
5.780514 -10.976051 0.270682
5.631905 -10.854902 0.266837
5.017382 -9.817365 0.240570
4.960814 -9.855445 0.240753
4.775964 -9.634968 0.234647
4.660832 -9.549511 0.231865
4.447063 -9.255167 0.224051
4.315889 -9.125180 0.220259
4.245281 -9.120262 0.219508
4.233329 -9.242396 0.221818
4.191621 -9.301667 0.222619
4.119744 -9.293994 0.221826
3.720178 -8.533542 0.203127
3.608513 -8.418024 0.199847
3.573172 -8.478872 0.200767
3.524635 -8.509221 0.200970
3.480057 -8.549606 0.201415
3.432792 -8.583950 0.201725
3.357273 -8.546848 0.200365
3.278810 -8.499997 0.198791
3.235262 -8.542843 0.199325
3.153485 -8.483715 0.197490
3.132800 -8.589072 0.199492
3.048314 -8.519468 0.197437
2.978248 -8.487471 0.196268
1.959670 -5.696341 0.131444
1.916879 -5.685119 0.130911
1.868795 -5.656923 0.129996
1.824214 -5.637886 0.129298
3.630019 -11.458448 0.262271
3.605712 -11.629086 0.265665
4.289801 -14.141577 0.322455
4.217198 -14.215664 0.323548
1.583984 -5.590115 0.126779
1.530348 -5.529968 0.125200
1.511432 -5.594942 0.126458
3.447258 -14.129497 0.317350
3.384935 -14.253292 0.319658
3.287994 -14.233014 0.318745
1.270916 -5.826659 0.130127
1.257421 -5.939590 0.132475
3.103705 -15.117981 0.336756
1.171648 -5.890270 0.131044
2.785407 -14.466540 0.321459
1.086079 -5.833319 0.129471
1.050220 -5.839620 0.129465
0.990755 -5.709863 0.126451
1.031570 -6.169586 0.136490
0.896233 -5.570075 0.123103
0.868425 -5.616775 0.124015
0.817283 -5.509672 0.121537
0.789068 -5.554053 0.122407
0.856413 -6.305671 0.138853
0.808144 -6.237012 0.137230
0.774981 -6.283379 0.138143
0.817368 -6.979277 0.153329
0.893613 -8.057974 0.176904
0.823320 -7.864311 0.172538
0.783863 -7.958699 0.174500
0.743305 -8.053179 0.176468
0.524162 -6.086772 0.133305
0.457193 -5.719440 0.125197
0.422214 -5.723822 0.125234
0.351598 -5.722961 0.125111
0.319124 -5.772913 0.126158
0.286143 -5.824571 0.127246
0.268157 -6.239405 0.136270
0.220958 -5.999055 0.130989
0.183052 -5.964703 0.130212
0.151346 -6.165150 0.134565
0.106977 -5.810832 0.126814
0.071568 -5.831607 0.127256
0.035772 -5.829853 0.127210
0.000000 -19.968771 0.435720
-0.039636 -6.459535 0.140950
-0.075265 -6.132842 0.133829
-0.112336 -6.101932 0.133167
-0.150281 -6.121762 0.133618
-0.191204 -6.230340 0.136011
-0.217498 -5.905118 0.128938
-0.252813 -5.882404 0.128473
-0.295770 -6.020546 0.131527
-0.338626 -6.125710 0.133868
-0.365329 -5.946463 0.129997
-0.417564 -6.177176 0.135094
-0.454265 -6.158325 0.134740
-0.518480 -6.486135 0.141979
-0.557853 -6.043939 0.132440
-0.613880 -6.232827 0.136659
-0.737049 -6.646196 0.145910
-0.639254 -5.458412 0.119917
-0.674716 -5.470453 0.120270
-0.794874 -6.134596 0.134976
-0.811760 -5.976900 0.131614
-0.880452 -6.197282 0.136583
-1.023554 -6.620113 0.146168
-0.984812 -6.120595 0.135270
-1.081362 -6.467379 0.143078
-0.956975 -5.515181 0.122140
-0.986681 -5.486317 0.121632
-1.018107 -5.468246 0.121368
-1.048272 -5.444400 0.120979
-1.127537 -5.668512 0.126111
-1.169297 -5.695581 0.126870
-1.210739 -5.719083 0.127557
-1.245732 -5.711198 0.127549
-1.245285 -5.390570 0.120720
-1.262894 -5.317795 0.119262
-1.291374 -5.293037 0.118882
-1.354283 -5.406599 0.121617
-1.368999 -5.326471 0.120001
-1.419121 -5.384236 0.121497
-1.447484 -5.358222 0.121108
-1.516514 -5.479979 0.124068
-1.521692 -5.370279 0.121793
-1.576919 -5.437752 0.123541
-1.625042 -5.477821 0.124675
-1.660297 -5.473264 0.124801
-1.671947 -5.392337 0.123187
-1.710017 -5.397806 0.123550
-1.886869 -5.831525 0.133739
-1.868183 -5.655071 0.129953
-1.911165 -5.668173 0.130521
-2.094618 -6.088605 0.140496
-1.948920 -5.554072 0.128435
-1.949937 -5.449708 0.126296
-2.059875 -5.647477 0.131169
-2.117417 -5.696415 0.132605
-2.160045 -5.703689 0.133081
-2.205333 -5.717111 0.133707
-2.335269 -5.945059 0.139371
-2.328782 -5.823293 0.136849
-2.413173 -5.928546 0.139667
-2.452614 -5.921133 0.139845
-2.471851 -5.865519 0.138887
-2.469178 -5.760157 0.136748
-2.519604 -5.779601 0.137574
-2.550106 -5.752947 0.137310
-2.569280 -5.701515 0.136456
-2.594727 -5.664927 0.135959
-2.635485 -5.661891 0.136271
-2.636023 -5.573402 0.134528
-2.679675 -5.576902 0.135007
-2.779569 -5.695018 0.138277
-2.772939 -5.594091 0.136237
-2.884391 -5.730301 0.139982
-2.905640 -5.685381 0.139318
-2.938690 -5.664014 0.139234
-2.956703 -5.614194 0.138452
-2.987124 -5.588517 0.138268
-10.457281 -19.278718 0.478563
-3.058701 -5.557294 0.138414
-10.747233 -19.245929 0.480987
-10.901810 -19.244386 0.482612
-3.277832 -5.704284 0.143554
-11.248024 -19.299398 0.487416
-3.553044 -6.011236 0.152365
-3.364866 -5.613940 0.142815
-3.381748 -5.564391 0.142080
-3.452549 -5.603133 0.143607
-3.512933 -5.623575 0.144681
-3.723052 -5.879342 0.151846
-3.840648 -5.903500 0.153676
-3.923761 -5.951048 0.155537
-3.963534 -5.931848 0.155668
-9.574439 -14.140556 0.372622
-7.791580 -11.356712 0.300519
-7.836915 -11.273874 0.299593
-7.893334 -11.207673 0.299116
-7.966519 -11.165426 0.299287
-8.064375 -11.157144 0.300386
-10.395505 -14.197969 0.383964
-10.484648 -14.136912 0.384046
-10.571547 -14.072784 0.384059
-10.680857 -14.038093 0.384893
-10.816747 -14.037120 0.386679
-10.931701 -14.007680 0.387709
-11.071336 -14.008530 0.389605
-11.246692 -14.052297 0.392734
-11.389215 -14.052752 0.394693
-11.537878 -14.058945 0.396848
-11.686349 -14.063005 0.398979
-11.830311 -14.059837 0.400941
-11.987502 -14.070490 0.403335
-12.160938 -14.097907 0.406252
-12.231726 -14.005292 0.405738
-12.243273 -13.846110 0.403295
-12.206659 -13.635184 0.399326
-8.280842 -9.136501 0.269058
-8.235669 -8.975362 0.265796
-8.289077 -8.923037 0.265748
-7.068616 -7.516213 0.225137
-8.323102 -8.742028 0.263379
-8.594878 -8.917274 0.270243
-8.345136 -8.552511 0.260736
-8.926779 -9.037005 0.277171
-8.956598 -8.956598 0.276385
-8.604984 -8.500027 0.263920
-14.530344 -13.834038 0.437769
-14.983454 -14.091175 0.448807
-7.834742 -7.278103 0.233336
-7.589528 -6.964046 0.224756
-12.426534 -11.262754 0.365946
-7.492426 -6.707463 0.219426
-15.886274 -14.047266 0.462719
-7.844910 -6.851467 0.227270
-7.690108 -6.633533 0.221602
-8.719999 -7.429095 0.249961
-7.501546 -6.311995 0.213920
-7.792739 -6.475762 0.221086
-8.088382 -6.637963 0.228314
-8.040565 -6.516569 0.225831
-8.124285 -6.502235 0.227058
-8.118121 -6.415980 0.225781
-8.165744 -6.372609 0.226014
-8.002008 -6.166201 0.220430
-7.975610 -6.068228 0.218673
-8.020825 -6.025285 0.218895
-8.022431 -5.949841 0.217939
-8.294415 -6.073026 0.224311
-8.394330 -6.067416 0.226002
-8.366849 -5.969737 0.224272
-8.397906 -5.914473 0.224127
-8.391756 -5.833440 0.223004
-8.451721 -5.798532 0.223647
-8.462766 -5.730060 0.223005
-13.484082 -9.009775 0.353860
-13.686241 -9.023878 0.357705
-13.808486 -8.983406 0.359453
-14.013025 -8.994583 0.363334
-14.259211 -9.029546 0.368273
-14.463296 -9.034929 0.372106
-11.845878 -7.299216 0.303608
-11.868224 -7.212890 0.303040
-11.904010 -7.134989 0.302831
-11.967961 -7.073869 0.303348
-12.032082 -7.012506 0.303876
-15.739586 -9.044381 0.396102
-15.989174 -9.057755 0.400977
-16.229857 -9.063011 0.405611
-16.596484 -9.134606 0.413365
-16.858641 -9.144568 0.418489
-17.090329 -9.134971 0.422841
-17.349265 -9.136953 0.427852
-17.719456 -9.193478 0.435582
-17.923487 -9.160196 0.439208
-17.940107 -9.030291 0.438249
-18.056254 -8.950317 0.439736
-19.041032 -9.293360 0.462322
-18.976904 -9.118312 0.459398
-19.097487 -9.032439 0.460966
-19.948343 -9.285513 0.480120
-20.150145 -9.229445 0.483605
-20.499957 -9.237920 0.490630
-20.993101 -9.305602 0.501057
-21.352950 -9.308771 0.508273
-21.729097 -9.314506 0.515856
-22.111894 -9.318409 0.523577
-22.456529 -9.301799 0.530376
-37.954361 -15.449057 0.894146
-37.980390 -15.188669 0.892547
-37.992512 -14.923774 0.890663
-22.867119 -8.820821 0.534798
-23.066459 -8.735503 0.538196
-23.756428 -8.830512 0.553020
-23.141700 -8.440762 0.537494
-23.464686 -8.395799 0.543789
-23.560696 -8.267432 0.544828
-20.151230 -6.932479 0.464994
-20.168253 -6.800228 0.464415
-21.250201 -7.020118 0.488328
-21.304104 -6.893230 0.488585
-24.001523 -7.603647 0.549367
-38.120797 -11.819727 0.870865
-38.094011 -11.555692 0.868617
-38.098824 -11.302340 0.867129
-38.113759 -11.052785 0.865909
-38.134667 -10.805626 0.864861
-21.902128 -6.061135 0.495868
-37.669438 -10.176118 0.851414
-37.687022 -9.933155 0.850418
-38.394360 -9.868041 0.864996
-39.489985 -9.891726 0.888296
-40.607572 -9.907272 0.912050
-41.829620 -9.933884 0.938111
-43.104269 -9.957595 0.965309
-45.137763 -10.136024 1.009437
-46.631763 -10.171365 1.041432
-47.406331 -10.035997 1.057336
-44.085314 -7.093387 0.974317
-54.705025 -7.088256 1.203646
-46.032892 4.533844 0.655986
-46.332127 4.850542 0.660662
-46.128662 5.115572 0.658196
-45.214824 5.295271 0.645608
-45.134362 5.566793 0.644934
-45.124438 5.846877 0.645293
-45.120100 6.128044 0.645757
-45.249763 6.428664 0.648165
-39.747568 5.895995 0.569858
-39.924265 6.172799 0.572923
-38.951550 6.267357 0.559506
-38.981817 6.517855 0.560505
-39.831522 6.911425 0.573321
-38.491493 6.922462 0.554634
-38.526740 7.173116 0.555766
-38.564549 7.425271 0.556958
-38.337242 7.625751 0.554341
-38.276028 7.858028 0.554142
-38.403876 8.130163 0.556705
-40.187862 8.765815 0.583335
-39.212338 8.805425 0.569948
-38.297866 8.847260 0.557435
-37.834806 8.985178 0.551487
-37.815354 9.226038 0.552018
-38.211960 9.571598 0.558655
-38.218523 9.822848 0.559621
-38.215096 10.072340 0.560466
-38.255189 10.334354 0.561973
-38.254174 10.586356 0.562902
-38.279428 10.846645 0.564242
-38.270175 11.098145 0.565099
-21.558294 6.395451 0.318904
-38.278313 11.611599 0.567280
-20.679492 6.411879 0.307045
-20.447076 6.477603 0.304179
-20.298550 6.567870 0.302563
-18.955703 6.262118 0.283114
-18.926204 6.381440 0.283253
-18.862054 6.488973 0.282884
-20.054191 7.037002 0.301405
-18.045464 6.456770 0.271805
-17.882876 6.522645 0.269954
-17.591343 6.538885 0.266153
-17.318698 6.558767 0.262632
-17.082704 6.589526 0.259662
-16.707260 6.562751 0.254562
-16.156081 6.460949 0.246764
-16.178760 6.585451 0.247723
-16.145115 6.687526 0.247831
-16.102133 6.785771 0.247806
-16.146977 6.921646 0.249145
-16.250617 7.084420 0.251410
-15.980422 7.083634 0.247898
-15.978251 7.200298 0.248545
-16.015548 7.335660 0.249820
-13.974074 6.504623 0.218594
-13.854577 6.552727 0.217350
-13.744027 6.603939 0.216247
-13.762109 6.716876 0.217176
-13.523682 6.703563 0.214059
-13.493488 6.792051 0.214237
-13.207614 6.750044 0.210351
-12.955802 6.721927 0.206994
-12.745164 6.712213 0.204283
-12.676788 6.775885 0.203849
-12.672099 6.873678 0.204448
-12.011427 6.611018 0.194440
-11.984738 6.692469 0.194669
-12.291250 6.962907 0.200338
-11.582016 6.655332 0.189440
-11.467167 6.683264 0.188229
-11.317823 6.689593 0.186448
-11.126865 6.669186 0.183972
-10.908308 6.629504 0.181028
-10.800905 6.655323 0.179920
-10.873915 6.792715 0.181827
-10.892347 6.897502 0.182839
-10.178233 6.533133 0.171522
-9.914024 6.449780 0.167733
-10.041019 6.620439 0.170566
-10.095269 6.745443 0.172187
-10.003468 6.773255 0.171327
-9.884698 6.781665 0.170003
-9.888880 6.874151 0.170797
-9.643851 6.791966 0.167281
-10.024986 7.152816 0.174651
-9.933814 7.180153 0.173826
-9.560641 7.000135 0.168045
-9.486691 7.035810 0.167501
-9.417764 7.074673 0.167047
-9.222888 7.017217 0.164351
-9.369777 7.220178 0.167755
-9.456123 7.379631 0.170108
-8.910446 7.042177 0.161066
-9.332045 7.468860 0.169513
-8.638194 7.000924 0.157686
-8.523197 6.994807 0.156368
-11.638385 9.671492 0.214604
-11.466859 9.648512 0.212529
-8.231155 7.012619 0.153352
-8.107618 6.993680 0.151847
-11.120118 9.711918 0.209381
-7.932938 7.014615 0.150177
-7.736302 6.925789 0.147256
-7.677309 6.958308 0.146943
-10.581015 9.708993 0.203656
-10.408644 9.669135 0.201477
-10.361019 9.744011 0.201708
-10.290546 9.797414 0.201503
-10.109592 9.744088 0.199127
-10.003587 9.761027 0.198215
-9.899445 9.778700 0.197336
-9.851753 9.851753 0.197587
-11.245196 11.384049 0.226931
-9.787578 10.030799 0.198754
-9.434518 9.788409 0.192800
-8.981097 9.433142 0.184714
-8.946221 9.512712 0.185194
-8.827747 9.502904 0.183945
-8.854858 9.650165 0.185740
-8.852907 9.767678 0.186953
-8.751596 9.775780 0.186076
-8.649262 9.781586 0.185173
-8.685104 9.944419 0.187243
-8.580296 9.946947 0.186296
-8.601097 10.095652 0.188089
-8.616633 10.240514 0.189800
-11.311034 13.611362 0.250984
-11.463028 13.967740 0.256254
-11.509330 14.200958 0.259232
-11.558223 14.441543 0.262324
-11.599471 14.676777 0.265299
-11.554924 14.806266 0.266353
-5.029275 6.526596 0.116851
-4.970511 6.532855 0.116415
-4.859698 6.469203 0.114747
-4.850920 6.540708 0.115485
-4.851952 6.626697 0.116476
-4.827366 6.678709 0.116867
-4.653092 6.521513 0.113615
-4.487530 6.371804 0.110525
-4.623007 6.650474 0.114864
-4.375226 6.377164 0.109678
-4.399968 6.498344 0.111296
-4.502768 6.738868 0.114940
-4.383573 6.648432 0.112936
-4.396268 6.757549 0.114330
