-31.961978 -6.357633 1.458447
-31.411555 -6.048024 1.431610
-31.152640 -5.800167 1.418161
-29.430520 -5.292901 1.338262
-28.127733 -4.880625 1.277636
-27.897642 -4.664554 1.265860
-26.578078 -4.276449 1.204772
-22.375276 -3.459502 1.013279
-1.343880 -0.199346 0.060802
-27.099031 -3.680490 1.223922
-26.707204 -3.460514 1.205243
-27.159533 -3.349809 1.224706
-27.366015 -3.204933 1.233106
-27.045570 -2.999297 1.217815
-26.479581 -2.772165 1.191541
-25.869875 -2.547960 1.163380
-25.091896 -2.315973 1.127734
-24.388109 -2.100178 1.095503
-23.994601 -1.918047 1.077278
-24.099497 -1.777686 1.081477
-23.191781 -1.567714 1.040291
-22.647383 -1.391373 1.015470
-22.637024 -1.251364 1.014642
-22.375893 -1.099257 1.002616
-20.354519 -0.874794 0.911785
-19.204751 -0.707353 0.860070
-3.806886 -0.046720 0.170386
-25.225768 -0.154785 1.128973
-23.149069 0.000000 0.858952
-23.138577 0.141978 0.858579
-23.061648 0.283023 0.855773
-23.244057 0.427920 0.862623
-23.394913 0.574313 0.868336
-23.552884 0.722820 0.874347
-23.721642 0.873720 0.880795
-24.023638 1.032485 0.892226
-24.503520 1.203781 0.910306
-25.200308 1.393061 0.936492
-25.825483 1.586623 0.960068
-26.413817 1.785517 0.982328
-27.272296 2.011725 1.014695
-27.452863 2.194489 1.021895
-27.078196 2.331835 1.008462
-27.502451 2.538466 1.024823
-26.100941 2.570718 0.973168
-27.721959 2.902231 1.034252
-32.570315 4.017165 1.217688
-36.883900 4.779132 1.380028
-35.852570 4.869363 1.342532
-36.188972 5.141392 1.356285
-36.344885 5.391254 1.363343
-36.853855 5.698075 1.383720
-36.961601 5.947172 1.389110
-36.893568 6.168695 1.387949
-36.758218 6.378156 1.384303
-36.653948 6.591990 1.381874
-36.476447 6.791382 1.376727
-36.365242 7.001813 1.374126
-36.132336 7.187169 1.366966
-35.924633 7.375289 1.360794
-35.612192 7.539159 1.350686
-35.433034 7.728688 1.345664
-35.310352 7.929205 1.342828
-35.036121 8.093758 1.334262
-34.843258 8.274732 1.328826
-34.730341 8.473369 1.326478
-34.662220 8.682434 1.325886
-34.637893 8.902562 1.327020
-34.634617 9.128634 1.329015
-34.667432 9.365148 1.332454
-34.904924 9.659494 1.343835
-35.510487 10.062054 1.369501
-36.836037 10.682253 1.423123
-39.379649 11.682308 1.524134
-42.224317 12.808607 1.637243
-43.678006 13.542794 1.696800
-44.014382 13.943691 1.713159
-44.171763 14.292370 1.722666
-44.302363 14.635524 1.731229
-44.241579 14.917148 1.732398
-44.358863 15.260452 1.740624
-44.516548 15.620827 1.750540
-44.487689 15.917950 1.753213
-44.719701 16.311176 1.766267
-44.464889 16.528062 1.760176
-43.975237 16.653870 1.744805
-43.376872 16.732306 1.725105
-47.217326 18.547358 1.882331
-43.683331 29.188269 1.949418
-42.093390 28.501042 1.886233
-41.117224 28.209585 1.850212
-42.276405 29.387997 1.910452
-42.524304 29.948994 1.929923
-43.572109 31.088649 1.986096
-43.640847 31.543571 1.998014
-43.490522 31.843002 2.000040
-42.285032 31.360717 1.953414
-41.650978 31.288427 1.932956
-40.187722 30.576754 1.873720
-38.652263 29.784725 1.810618
-35.334686 27.575460 1.663105
-34.063859 30.120600 1.687207
-31.691373 28.371146 1.578289
-29.998496 27.189052 1.502261
-28.873288 26.493730 1.454027
-28.348771 26.334661 1.435723
-27.963094 26.297866 1.424336
-27.436489 26.121709 1.405650
-26.815615 25.846120 1.381940
-26.388020 25.748180 1.368020
-26.039297 25.721692 1.358098
-25.691118 25.691118 1.348135
-25.398752 25.712370 1.341047
-25.019117 25.640840 1.329285
-24.730266 25.657904 1.322278
-24.303852 25.527134 1.307828
-23.889581 25.402312 1.293899
-23.373621 25.161267 1.274292
-22.712159 24.752071 1.246487
-21.982294 24.253724 1.214575
-21.316105 23.810693 1.185817
-20.829599 23.556521 1.166771
-20.355730 23.307254 1.148217
-19.933208 23.108127 1.132360
-19.568889 22.969244 1.119649
-19.203671 22.822771 1.106745
-18.935378 22.786270 1.099320
-18.694303 22.779074 1.093418
-18.469666 22.789070 1.088437
-18.315197 22.884115 1.087589
-18.086362 22.884621 1.082318
-17.849539 22.872070 1.076524
-17.585531 22.821113 1.069027
-17.348208 22.801143 1.063085
-17.100447 22.764019 1.056442
-16.886719 22.769105 1.051850
-16.671910 22.770155 1.047153
-16.410387 22.703934 1.039457
-16.105829 22.573029 1.028920
-15.755112 22.370540 1.015264
-15.441425 22.213421 1.003815
-15.208351 22.167117 0.997486
-15.091362 22.288540 0.998765
-14.925596 22.337732 0.996846
-14.697866 22.291807 0.990753
-14.461106 22.228316 0.983969
-14.186060 22.101036 0.974464
-13.917782 21.978580 0.965281
-13.688111 21.912205 0.958659
-13.487660 21.889088 0.954009
-13.273429 21.840347 0.948317
-13.107119 21.867907 0.946004
-12.827619 21.702475 0.935424
-12.425527 21.319760 0.915625
-12.088046 21.036357 0.900251
-11.797224 20.825013 0.888092
-11.507056 20.606603 0.875751
-11.245384 20.431514 0.865361
-10.991804 20.264147 0.855399
-10.727018 20.068839 0.844361
-10.480106 19.899646 0.834521
-10.219721 19.697431 0.823395
-9.980898 19.529331 0.813793
-9.792583 19.454521 0.808157
-9.615659 19.398505 0.803364
-9.431731 19.324538 0.797889
-9.273468 19.299814 0.794503
-9.144885 19.335234 0.793637
-9.017672 19.372933 0.792898
-8.913958 19.461359 0.794263
-8.783876 19.492384 0.793315
-8.634878 19.479972 0.790639
-8.487672 19.469469 0.788084
-8.346225 19.470269 0.786028
-8.194584 19.445141 0.782969
-8.008434 19.334070 0.776504
-7.781714 19.117669 0.765880
-7.517201 18.797317 0.751184
-7.214666 18.366887 0.732201
-6.779671 17.575637 0.698986
-6.276639 16.573727 0.657595
-6.168384 16.594596 0.656909
-6.094138 16.708055 0.659908
-5.885754 16.449582 0.648261
-5.825268 16.600967 0.652806
-5.775131 16.787068 0.658718
-5.686771 16.865941 0.660431
-5.566504 16.850049 0.658459
-5.418223 16.745471 0.653061
-5.299387 16.727942 0.651097
-5.191436 16.743338 0.650444
-5.087614 16.771616 0.650318
-5.000393 16.855721 0.652377
-4.911605 16.936882 0.654339
-4.813040 16.985937 0.655081
-4.709079 17.016424 0.655130
-4.585726 16.975208 0.652448
-4.462960 16.932753 0.649751
-4.346104 16.909726 0.647832
-4.225231 16.868070 0.645231
-4.113102 16.858636 0.643893
-3.999893 16.842760 0.642337
-3.886110 16.822125 0.640628
-3.778409 16.826020 0.639882
-3.674686 16.847011 0.639810
-3.579044 16.906077 0.641207
-3.486571 16.982898 0.643298
-3.393050 17.058014 0.645342
-3.304926 17.164760 0.648601
-3.212321 17.253347 0.651192
-3.109597 17.290530 0.651862
-3.001515 17.298159 0.651444
-2.897085 17.326808 0.651841
-2.802456 17.417230 0.654583
-2.703761 17.487317 0.656581
-2.604934 17.561035 0.658737
-2.522900 17.758062 0.665534
-2.439830 17.964195 0.672686
-2.367319 18.270256 0.683590
-2.293972 18.599032 0.695351
-2.164377 18.481005 0.690429
-1.960635 17.679640 0.660029
-1.871645 17.877863 0.666988
-1.561710 15.856303 0.591199
-1.710560 18.532689 0.690583
-1.564925 18.172537 0.676792
-1.459363 18.256504 0.679573
-1.361355 18.455442 0.686655
-1.256362 18.585831 0.691206
-1.145331 18.642564 0.693041
-1.034749 18.718492 0.695615
-0.928596 18.901998 0.702209
-0.819587 19.069955 0.708249
-0.709762 19.270172 0.715510
-0.600290 19.560282 0.726131
-0.491964 20.040399 0.743828
-0.378976 20.585504 0.763960
-0.258178 21.037160 0.780648
-0.132150 21.536814 0.799144
0.000000 21.906962 0.812864
0.135916 22.150519 0.821916
0.277772 22.633796 0.839896
0.412327 22.397080 0.831190
0.503369 20.504974 0.761072
0.663355 21.615242 0.802417
0.877296 20.412727 0.758119
0.974048 19.827200 0.736581
1.036469 18.749599 0.696771
1.181484 19.231021 0.714917
1.323711 19.582153 0.728259
1.435554 19.461336 0.724080
1.539810 19.262887 0.717034
1.626144 18.883435 0.703268
1.726151 18.701601 0.696877
1.870180 18.988261 0.707973
2.056075 19.639523 0.732712
2.247990 20.270806 0.756765
2.433477 20.778776 0.776271
2.653369 21.512948 0.804292
2.749049 21.216332 0.793818
2.729662 20.098198 0.752596
2.833828 19.946608 0.747556
3.096341 20.873835 0.783004
3.200747 20.701709 0.777269
3.388726 21.060888 0.791521
3.540587 21.175449 0.796628
3.663969 21.115971 0.795221
3.749963 20.851204 0.786102
3.937694 21.149317 0.798237
4.138374 21.493429 0.812168
4.300450 21.619821 0.817925
4.453413 21.692334 0.821687
4.511345 21.309921 0.808235
4.597445 21.077502 0.800475
4.804280 21.394429 0.813615
4.744524 20.538013 0.782138
4.945045 20.822604 0.794117
0.323842 1.327350 0.050696
6.038493 23.494438 0.900101
6.150508 23.335416 0.895437
6.172659 22.849637 0.878234
6.434632 23.251773 0.895190
6.709662 23.679396 0.913222
6.787022 23.403958 0.904188
6.875974 23.178079 0.897075
6.895618 22.731807 0.881423
6.892249 22.228772 0.863542
7.229100 22.819235 0.888187
7.109104 21.971279 0.856864
7.395116 22.385336 0.874765
0.368878 1.094026 0.042840
8.443316 24.061933 0.946196
8.937658 24.979081 0.984399
8.494461 23.288926 0.919829
8.646160 23.260473 0.920783
8.945040 23.619749 0.937160
9.125276 23.656389 0.940818
9.364867 23.840806 0.950420
9.553924 23.890292 0.954712
9.677696 23.775609 0.952484
10.669754 25.759064 1.034547
12.306587 29.202619 1.175859
12.798423 29.856460 1.205326
13.075577 29.993448 1.214072
13.223443 29.831608 1.210783
13.339034 29.600779 1.204714
13.490182 29.452379 1.202020
13.745172 29.529161 1.208573
14.111011 29.835227 1.224621
14.430610 30.032786 1.236341
14.750371 30.221821 1.247825
15.266798 30.799041 1.275502
15.899515 31.586912 1.312146
16.590206 32.461570 1.352683
18.174882 35.030162 1.464337
20.553338 39.026720 1.636643
21.146605 39.562516 1.664522
22.963721 42.335202 1.787073
27.289227 36.327265 1.685891
25.122583 33.019181 1.539493
25.589605 33.208167 1.555596
8.774282 11.243203 0.529186
15.491516 18.876466 0.906089
27.914198 33.591116 1.620598
27.779506 33.014798 1.600987
27.722537 32.539696 1.586167
27.472081 31.847776 1.560626
27.337167 31.300979 1.542023
27.560484 31.168583 1.543802
27.791960 31.044406 1.546069
28.046542 30.944591 1.549640
28.422461 30.975250 1.559879
28.971712 31.187507 1.579491
29.719404 31.601290 1.609652
30.613173 32.154021 1.647343
31.561035 32.744897 1.687505
32.431717 33.237642 1.723122
33.295491 33.706616 1.757993
34.132547 34.132547 1.791097
34.966670 34.540176 1.823712
35.709259 34.843404 1.851257
36.304370 34.991818 1.870942
36.774531 35.012264 1.884065
37.181272 34.967093 1.893875
37.518548 34.852948 1.900126
37.816929 34.700291 1.904418
38.191210 34.614495 1.912535
38.234059 34.228371 1.904127
38.016061 33.615292 1.882963
37.942714 33.137823 1.869223
36.695552 31.653801 1.798180
34.676920 29.543368 1.690347
36.935351 31.078360 1.791106
50.432678 21.253372 2.030699
51.488320 18.422816 2.029101
48.229860 16.923825 1.896560
50.807033 16.439301 1.981437
48.018178 15.212088 1.868998
47.995137 14.881363 1.864512
36.641934 11.115209 1.420787
37.050988 10.991490 1.434006
37.425602 10.853223 1.445900
36.343530 10.298100 1.401628
46.490592 12.865680 1.789882
44.399999 11.994329 1.706529
44.033845 11.605986 1.689687
43.377311 11.148749 1.661838
42.573663 10.664147 1.628511
42.089478 10.268821 1.607550
42.610747 10.119390 1.625057
37.005816 8.548781 1.409273
28.524548 6.405402 1.084768
28.102079 6.129653 1.067252
27.194809 5.757185 1.031435
27.179961 5.580017 1.029554
27.184937 5.407420 1.028466
27.191962 5.235578 1.027497
27.171447 5.058927 1.025529
27.087751 4.871568 1.021223
26.887467 4.665418 1.012574
26.686793 4.462097 1.003967
26.482257 4.261031 0.995270
26.308658 4.067653 0.987789
26.156623 3.879968 0.981168
26.027693 3.697772 0.975462
25.937460 3.522729 0.971252
25.843467 3.348597 0.966945
25.765146 3.177828 0.963267
25.721009 3.012280 0.960907
25.677419 2.847572 0.958608
25.661853 2.686557 0.957394
25.684239 2.529677 0.957632
25.739945 2.375787 0.959147
25.832591 2.224570 0.962073
25.916219 2.071655 0.964696
25.981513 1.916512 0.966670
26.056037 1.761332 0.969022
26.140105 1.605953 0.971764
26.256723 1.451459 0.975750
26.426294 1.298241 0.981737
26.600937 1.143252 0.987946
26.787478 0.986641 0.994630
27.010866 0.828943 1.002717
27.326659 0.670832 1.014268
27.743517 0.510754 1.029605
28.063256 0.344405 1.041373
28.284740 0.173555 1.049532
28.467127 -0.000000 1.056280
28.634891 -0.175704 1.062525
28.823414 -0.353734 1.069581
28.989000 -0.533683 1.075827
28.970911 -0.711196 1.075297
28.765532 -0.882792 1.067855
28.687009 -1.056605 1.065161
28.631217 -1.230509 1.063349
27.733134 -1.362442 1.030286
26.420701 -1.460523 0.981844
25.868577 -1.589271 0.961670
25.581697 -1.729267 0.951382
25.471436 -1.878886 0.947692
25.419875 -2.031979 0.946220
25.345374 -2.182613 0.943927
25.293334 -2.334565 0.942505
25.274618 -2.489333 0.942359
25.249051 -2.643340 0.941993
25.242355 -2.799324 0.942366
25.236685 -2.955559 0.942814
25.224431 -3.111137 0.943051
25.197946 -3.264956 0.942792
25.155924 -3.416584 0.941987
25.124057 -3.569392 0.941596
25.096415 -3.722701 0.941398
25.029970 -3.869952 0.939779
24.932629 -4.011694 0.937031
24.774404 -4.142341 0.932022
24.569639 -4.263237 0.925285
24.368565 -4.382539 0.918708
24.236950 -4.512566 0.914773
24.204680 -4.660402 0.914617
24.243544 -4.822341 0.917187
24.285118 -4.985709 0.919899
24.272590 -5.138547 0.920602
24.230614 -5.285205 0.920222
24.178700 -5.429509 0.919499
24.199752 -5.590429 0.921587
24.270016 -5.763751 0.925592
24.270839 -5.921502 0.926991
24.153530 -6.050144 0.923912
24.197114 -6.219094 0.927021
25.988480 -6.849775 0.997242
26.423136 -7.138013 1.015582
26.958465 -7.460412 1.037898
27.096100 -7.677800 1.044991
26.903307 -7.801814 1.039382
26.748806 -7.935261 1.035275
26.638172 -8.080601 1.032892
26.550138 -8.232131 1.031418
26.515949 -8.400214 1.032073
26.515903 -8.579578 1.034101
26.496060 -8.753116 1.035402
26.467928 -8.924320 1.036423
26.437452 -9.095081 1.037395
26.412519 -9.268135 1.038629
26.413807 -9.451011 1.040940
26.401977 -9.629923 1.042783
26.397771 -9.812327 1.044975
26.370738 -9.986867 1.046311
26.318598 -10.152204 1.046695
26.234268 -10.305038 1.045836
26.119103 -10.445244 1.043780
26.011624 -10.587850 1.042062
25.938374 -10.744026 1.041749
25.889370 -10.910315 1.042449
25.864125 -11.087048 1.044153
25.815622 -11.254263 1.044963
25.753732 -11.415844 1.045273
25.686929 -11.575331 1.045425
25.605056 -11.727978 1.045002
25.532301 -11.884722 1.044989
25.441868 -12.033108 1.044290
25.326397 -12.169213 1.042596
25.213850 -12.306129 1.041052
25.095330 -12.439522 1.039290
25.011092 -12.589526 1.038981
24.974765 -12.763908 1.040706
24.893768 -12.915764 1.040613
24.656290 -12.985182 1.033998
24.234158 -12.953427 1.019609
23.905850 -12.967159 1.009125
24.796382 -13.647781 1.050231
26.084067 -14.565759 1.108535
26.668446 -15.107488 1.137288
27.099243 -15.571940 1.159713
27.609356 -16.091212 1.185746
28.314427 -16.735727 1.220414
28.936575 -17.343915 1.251794
29.259774 -17.782572 1.270472
29.369678 -18.097065 1.280041
29.249254 -18.271417 1.279655
28.798998 -18.236764 1.264828
28.580530 -18.345073 1.260153
29.120861 -18.945198 1.289078
30.519824 -20.122922 1.356446
38.451532 -25.692492 1.715943
40.332637 -27.308852 1.807333
40.584720 -27.844246 1.826251
40.743941 -28.322720 1.841201
40.043961 -28.202139 1.817355
39.601716 -28.255778 1.805118
39.244348 -28.365785 1.796729
38.984995 -28.544133 1.792840
38.756995 -28.744146 1.790432
38.631916 -29.020493 1.792846
38.690095 -29.437287 1.803895
38.627964 -29.766001 1.809480
38.570741 -30.100902 1.815417
38.632388 -30.532266 1.827102
38.776558 -31.034642 1.842892
38.966147 -31.580564 1.861077
38.942401 -31.959202 1.869274
38.815272 -32.255470 1.872636
38.267420 -32.199198 1.855702
37.446601 -31.903026 1.825357
36.917885 -31.845586 1.809075
35.097279 -30.652721 1.729045
32.965750 -29.149608 1.632817
30.520565 -27.323001 1.519981
33.927502 -30.750095 1.699017
28.195366 -26.192155 1.427954
29.206206 -27.466950 1.487655
27.634585 -26.310312 1.415799
27.413389 -26.422282 1.412746
27.723117 -27.050905 1.437235
27.650421 -27.313164 1.442128
27.424673 -27.424673 1.439103
27.022613 -27.356282 1.426787
26.637030 -27.298957 1.415246
26.460800 -27.453352 1.414806
26.337132 -27.662754 1.417242
26.161217 -27.817793 1.416935
26.018277 -28.008189 1.418474
25.841937 -28.162954 1.418255
25.655006 -28.305937 1.417501
25.480737 -28.462704 1.417496
25.313984 -28.627982 1.417964
25.191417 -28.844102 1.420986
25.129746 -29.132360 1.427564
25.013047 -29.359396 1.431141
24.827460 -29.506414 1.430855
24.230889 -29.158731 1.406758
23.400062 -28.513058 1.368655
21.846765 -26.955955 1.287453
20.676528 -25.834505 1.227809
19.719072 -24.950485 1.180022
19.108269 -24.484984 1.152440
18.708880 -24.278907 1.137316
18.424942 -24.216319 1.129067
18.203671 -24.232624 1.124598
17.961003 -24.217609 1.118765
17.685820 -24.154932 1.110836
17.419503 -24.100057 1.103376
17.145406 -24.030041 1.095333
16.908430 -24.008126 1.089585
16.734146 -24.073078 1.087852
16.544489 -24.114622 1.085121
16.381467 -24.193905 1.084145
16.209331 -24.258978 1.082584
15.920003 -24.145385 1.073135
15.678892 -24.100188 1.066831
15.518196 -24.176425 1.065970
15.388903 -24.301734 1.067312
15.238834 -24.394634 1.067265
15.109251 -24.520764 1.068707
14.994826 -24.672766 1.071302
14.966107 -24.969440 1.080176
14.986325 -25.354692 1.092843
15.021181 -25.773393 1.106896
15.038377 -26.170704 1.119976
15.012933 -26.501532 1.130170
14.967328 -26.803189 1.139096
15.016084 -27.282425 1.155526
15.376245 -28.347166 1.196603
16.043568 -30.015404 1.262844
17.233100 -32.722245 1.372255
18.744166 -36.127396 1.510204
19.493518 -38.142396 1.589405
19.693925 -39.125109 1.625289
19.576550 -39.493477 1.635570
19.340943 -39.627378 1.636170
19.114595 -39.781030 1.637641
18.781231 -39.709576 1.629924
18.382958 -39.492654 1.616360
17.892993 -39.064798 1.594325
17.310112 -38.413036 1.563361
16.649893 -37.561556 1.524520
15.888717 -36.446376 1.475274
14.979381 -34.944251 1.410724
14.221670 -33.746970 1.358840
13.856174 -33.451764 1.343505
13.754226 -33.790596 1.353698
14.281622 -35.712250 1.427145
15.174536 -38.630893 1.540030
15.243176 -39.516448 1.571575
15.174321 -40.068426 1.589794
14.741120 -39.657537 1.569873
14.472235 -39.677949 1.567136
14.283187 -39.918832 1.573159
14.029693 -39.982102 1.572230
13.740061 -39.939413 1.567207
13.463506 -39.930339 1.563580
13.190797 -39.929112 1.560333
12.919757 -39.929588 1.557224
12.657461 -39.954293 1.555130
12.373915 -39.908156 1.550349
12.087701 -39.847809 1.545095
11.836588 -39.899709 1.544262
11.604686 -40.016901 1.546012
11.183012 -39.466518 1.522069
10.633694 -38.425231 1.479367
10.313064 -38.176379 1.467322
10.905048 -41.374442 1.587639
6.379488 -24.821173 0.950929
4.615484 -18.426043 0.704826
4.390364 -17.995067 0.687297
4.106113 -17.290027 0.659394
4.054831 -17.552482 0.668442
3.965870 -17.660822 0.671629
3.798601 -17.415110 0.661385
3.625939 -17.127593 0.649609
3.490964 -17.004298 0.644108
3.354005 -16.861720 0.637916
3.216076 -16.703299 0.631164
3.127541 -16.797994 0.634005
3.058394 -17.005820 0.641129
2.944466 -16.969376 0.639062
2.800170 -16.747181 0.630035
2.677924 -16.643266 0.625496
2.589474 -16.748133 0.628828
2.493172 -16.807600 0.630474
2.407566 -16.946256 0.635109
2.337931 -17.213925 0.644591
2.278473 -17.584569 0.657934
2.192208 -17.773956 0.664505
2.019240 -17.241722 0.644131
1.861736 -16.787833 0.626736
1.807908 -17.269047 0.644274
1.760378 -17.873415 0.666407
1.617257 -17.521815 0.652915
1.518748 -17.636306 0.656822
1.445592 -18.084228 0.673160
1.365709 -18.514460 0.688850
1.238945 -18.328174 0.681624
1.084672 -17.655221 0.656337
1.013151 -18.327785 0.681096
0.928496 -18.899964 0.702134
0.798937 -18.589492 0.690405
0.691544 -18.775531 0.697143
0.583479 -19.012486 0.705795
0.476180 -19.397443 0.719964
0.362269 -19.678009 0.730281
0.242602 -19.767999 0.733552
0.122572 -19.975886 0.741224
0.000000 -20.148896 0.747630
-0.123080 -20.058622 0.744294
-0.252885 -20.605880 0.764644
-0.404307 -21.961433 0.815023
-0.557778 -22.721367 0.843336
-0.706502 -23.021163 0.854608
-1.472778 -39.986176 1.484704
-1.757430 -40.891476 1.518690
-2.030359 -41.328909 1.535369
-2.355788 -42.615934 1.583690
-2.644372 -43.042460 1.600113
-2.964943 -43.861505 1.631207
-3.351777 -45.438935 1.690604
-3.903879 -48.837189 1.817897
-4.534989 -52.662101 1.961273
-4.975305 -53.903852 2.008618
-5.356714 -54.387633 2.027832
-5.724096 -54.676272 2.039865
-6.058798 -54.634016 2.039637
-6.211244 -53.036057 1.981366
-6.261683 -50.768385 1.898048
-6.611012 -51.021802 1.909003
-6.363333 -46.852504 1.754435
-6.370590 -44.840989 1.680544
-7.280330 -49.079995 1.841053
-7.886297 -51.006779 1.915108
-8.410785 -52.272929 1.964548
-8.637122 -51.656675 1.943342
-8.876938 -51.159053 1.926635
-9.323288 -51.840990 1.954434
-9.586362 -51.488260 1.943317
-9.614805 -49.936308 1.886933
-9.627751 -48.401974 1.831153
-9.894184 -48.194036 1.825549
-10.151569 -47.952247 1.818715
-10.045028 -46.052555 1.748969
-10.067827 -44.834070 1.705008
-11.048657 -47.827239 1.821380
-12.246769 -51.568721 1.966690
-12.225072 -50.107688 1.913795
-27.429197 -45.762850 1.979697
-28.957402 -47.647048 2.068855
-27.967946 -45.389105 1.978228
-29.528318 -47.269527 2.068042
-29.763489 -46.369742 2.044503
-29.391447 -45.177899 1.999867
-28.793067 -43.669569 1.940883
-28.624743 -42.839955 1.911781
-26.205110 -38.702512 1.734286
-26.798363 -39.060281 1.757653
-25.649911 -36.898943 1.667447
-15.595308 -22.143635 1.004967
-15.519559 -21.751346 0.991466
-15.173012 -20.992014 0.961080
-15.108757 -20.635232 0.948972
-15.353746 -20.702130 0.956363
-15.070873 -20.062261 0.931058
-13.586216 -17.856672 0.832553
-14.686964 -19.059582 0.892823
-13.616255 -17.228608 0.814819
-13.853950 -17.309963 0.822672
-13.299161 -16.409367 0.783734
-13.386410 -16.311388 0.782963
-13.547267 -16.302378 0.786505
-13.579162 -16.138274 0.782593
-13.554502 -15.909777 0.775532
-13.500909 -15.651305 0.766956
-13.424180 -15.370648 0.757225
-13.313604 -15.056564 0.745762
-13.225544 -14.773306 0.735738
-13.135219 -14.492481 0.725753
-13.083297 -14.258385 0.718036
-13.866678 -14.927220 0.755989
-14.722825 -15.655100 0.797412
-15.219288 -15.985318 0.818974
-15.422436 -16.000935 0.824607
-15.516512 -15.902095 0.824404
-15.403941 -15.594145 0.813324
-14.878372 -14.878372 0.780739
-14.184652 -14.011640 0.739811
-14.586040 -14.232367 0.756176
-14.575869 -14.048892 0.751166
-14.952214 -14.235692 0.766045
-15.195340 -14.290443 0.773994
-15.420110 -14.324549 0.780951
-15.549454 -14.267964 0.783053
-15.664021 -14.197041 0.784421
-15.702335 -14.057240 0.782005
-15.627065 -13.818064 0.774020
-15.446900 -13.490775 0.760982
-15.179569 -13.093986 0.743840
-15.052451 -12.824094 0.733741
-15.213491 -12.801025 0.737748
-15.413092 -12.808271 0.743602
-15.617452 -12.816912 0.749653
-15.713384 -12.735094 0.750493
-15.720487 -12.581820 0.747131
-15.640425 -12.361069 0.739707
-15.521108 -12.112792 0.730535
-15.378099 -11.850081 0.720368
-15.252599 -11.604912 0.711140
-15.231842 -11.442238 0.706886
-15.374551 -11.402544 0.710248
-15.587354 -11.412789 0.716830
-15.783990 -11.408656 0.722640
-15.954668 -11.383637 0.727243
-16.148398 -11.372985 0.732879
-16.193135 -11.256487 0.731761
-16.037352 -11.002859 0.721656
-15.837291 -10.723282 0.709680
-15.456659 -10.327809 0.689771
-15.249900 -10.054860 0.677778
-15.318442 -9.965740 0.678094
-15.527740 -9.966838 0.684638
-15.667964 -9.921629 0.688124
-15.668272 -9.787653 0.685487
-15.579146 -9.599588 0.678998
-15.397813 -9.357992 0.668579
-15.203053 -9.112360 0.657683
-15.099851 -8.925025 0.650837
-15.166998 -8.839590 0.651381
-15.297537 -8.790369 0.654658
-15.390596 -8.718665 0.656339
-15.404355 -8.602037 0.654663
-15.235631 -8.385601 0.645293
-15.064761 -8.171521 0.635921
-15.070589 -8.055398 0.634068
-15.144732 -7.975941 0.635117
-15.268519 -7.921846 0.638257
-15.261771 -7.799867 0.635963
-14.785228 -7.442258 0.614190
-14.942010 -7.406616 0.618804
-10.647376 -5.196667 0.439618
-15.888727 -7.514808 0.652171
-16.284432 -7.580043 0.666491
-16.131890 -7.388949 0.658380
-16.339530 -7.363102 0.664998
-16.709858 -7.406971 0.678207
-16.800023 -7.323933 0.680030
-16.385803 -7.024022 0.661506
-15.604487 -6.576053 0.628323
-16.077747 -6.659621 0.645722
-16.306840 -6.637585 0.653275
-15.777373 -6.309501 0.630500
-15.416550 -6.055749 0.614585
-15.462208 -5.964432 0.614934
-15.600207 -5.907957 0.618969
-15.702468 -5.836771 0.621594
-15.700506 -5.726642 0.620114
-15.721265 -5.625158 0.619559
-15.728326 -5.519059 0.618491
-15.681877 -5.394920 0.615351
-15.676212 -5.285624 0.613844
-15.692125 -5.183978 0.613210
-15.642901 -5.061472 0.610062
-15.427551 -4.887425 0.600482
-15.174093 -4.704876 0.589482
-15.045240 -4.563924 0.583378
-15.134007 -4.489632 0.585740
-15.419565 -4.471591 0.595719
-15.733304 -4.458101 0.606772
-16.069785 -4.447109 0.618685
-15.913369 -4.298878 0.611636
-15.103267 -3.980763 0.579549
-16.580654 -4.261527 0.635225
-1.149720 -0.273041 0.043847
-14.599901 -3.372750 0.556000
-15.376623 -3.452936 0.584762
-15.369767 -3.352468 0.583708
-15.766292 -3.337750 0.597978
-15.324375 -3.146078 0.580474
-14.947791 -2.973300 0.565508
-15.856328 -3.052999 0.599160
-18.682036 -3.478322 0.705114
-20.433145 -3.674777 0.770341
-21.425014 -3.717593 0.806860
-20.777815 -3.474101 0.781669
-20.056002 -3.227038 0.753755
-21.277186 -3.289724 0.798876
-0.999484 -0.141997 0.037459
-18.230111 -2.362117 0.682088
-13.355323 -1.647222 0.499308
-26.172027 -3.065100 0.977757
-25.548863 -2.833316 0.953809
-24.634296 -2.578981 0.919057
-24.717500 -2.434461 0.921587
-25.600879 -2.362951 0.953965
-25.465518 -2.192959 0.948402
-25.026397 -2.000525 0.931573
-24.605169 -1.814986 0.915462
-23.517226 -1.589714 0.874604
-22.994318 -1.412687 0.854819
-22.473269 -1.242311 0.835150
-22.017123 -1.081632 0.817936
-21.759154 -0.935163 0.808124
-22.007171 -0.810572 0.817136
-22.266659 -0.683347 0.826599
-22.515375 -0.552721 0.835691
-22.800695 -0.419757 0.846169
-22.837172 -0.280268 0.847443
-22.938041 -0.140748 0.851138
-23.205620 0.000000 0.683660
-21.671601 0.132977 0.638478
-22.972115 0.281924 0.676831
-23.310623 0.572244 0.686960
-23.909707 0.733771 0.704734
-22.619912 0.833141 0.666856
-26.311502 1.130813 0.775877
-26.758188 1.643925 0.789808
-26.612706 1.798961 0.785825
-25.857779 1.907384 0.763864
-24.494339 1.957994 0.723928
-14.260714 1.228059 0.421689
-24.224497 2.235912 0.716710
-24.358819 2.399134 0.721106
-37.242561 4.361611 1.104700
-37.683107 4.647768 1.118592
-36.275245 4.700267 1.077637
-36.560251 4.965477 1.086988
-36.654879 5.207583 1.090731
-36.864546 5.468339 1.097948
-37.012901 5.722665 1.103392
-37.014745 5.955723 1.104515
-36.934883 6.175603 1.103242
-36.794584 6.384466 1.100201
-36.765743 6.612096 1.100531
-36.551574 6.805369 1.095350
-36.371168 7.002954 1.091210
-36.219894 7.204585 1.087978
-36.093311 7.409919 1.085521
-35.907347 7.601644 1.081310
-35.775893 7.803472 1.078773
-35.670878 8.010163 1.077068
-35.474180 8.194955 1.072627
-35.393754 8.405466 1.071735
-35.306281 8.613884 1.070666
-35.205606 8.818545 1.069234
-35.127129 9.028304 1.068513
-34.991318 9.222650 1.066083
-34.903889 9.429026 1.065162
-35.194060 9.739508 1.075821
-35.720307 10.121507 1.093785
-35.894849 10.409313 1.101065
-36.697212 10.886540 1.127705
-39.446285 11.965900 1.214417
-41.466817 12.857193 1.279028
-42.385386 13.427628 1.309877
-42.947993 13.896403 1.329874
-43.293435 14.302219 1.343263
-43.399657 14.633273 1.349319
-43.996770 15.135883 1.370745
-44.175993 15.501326 1.379266
-44.239572 15.829172 1.384258
-44.043286 16.064459 1.381174
-44.198525 16.429052 1.389178
-43.239491 16.375236 1.362167
-45.857425 17.689161 1.448032
-4.729967 3.160463 0.167594
-40.283589 27.275643 1.433247
-40.858979 28.032408 1.459811
-40.587285 28.213823 1.456262
-40.810924 28.742296 1.470586
-41.324312 29.484848 1.495576
-41.360198 29.895120 1.503486
-41.208034 30.171804 1.504656
-41.012775 30.417147 1.504313
-40.174631 30.179388 1.480335
-38.410165 29.224303 1.421899
-41.448462 31.939425 1.541599
-35.646772 31.132629 1.394326
-33.856492 29.937238 1.331459
-32.443793 29.044737 1.282887
-30.713243 27.836861 1.221189
-29.134592 26.733500 1.164921
-28.217504 26.212720 1.134661
-27.603608 25.959788 1.116360
-27.028496 25.733267 1.099466
-26.477032 25.519778 1.083383
-25.957106 25.327715 1.068448
-25.489349 25.178452 1.055533
-25.109485 25.109485 1.046163
-24.756490 25.062177 1.037844
-24.356384 24.961637 1.027472
-24.009786 24.910399 1.019280
-23.633408 24.822945 1.009749
-23.236955 24.708361 0.999269
-22.792202 24.535380 0.986599
-22.220231 24.215961 0.968253
-21.561753 23.789728 0.945903
-20.782260 23.214372 0.917939
-20.309922 22.968810 0.903284
-19.919240 22.807473 0.892116
-19.883721 23.050758 0.896843
-19.818599 23.262343 0.900327
-18.346498 21.804058 0.839514
-17.797318 21.416762 0.820382
-11.699225 14.255547 0.543307
-17.557943 21.937956 0.827824
-18.304707 23.160893 0.869717
-17.005590 21.790650 0.814329
-16.992074 22.050971 0.820145
-17.097393 22.471492 0.831868
-16.853743 22.435608 0.826696
-16.705761 22.525111 0.826201
-16.486182 22.516491 0.822159
-16.154416 22.349797 0.812438
-15.795284 22.137786 0.801193
-15.512227 22.025669 0.793676
-15.256062 21.946765 0.787444
-14.981538 21.836524 0.780176
-14.764517 21.805819 0.775828
-14.455653 21.634413 0.766559
-14.367903 21.791362 0.768982
-14.465252 22.234689 0.781479
-13.932159 21.705474 0.759860
-12.587137 19.877262 0.693141
-14.136270 22.629626 0.786080
-12.936082 21.285269 0.733811
-12.967062 21.634235 0.743085
-12.319724 20.843189 0.713304
-12.460905 21.380464 0.729061
-12.259990 21.335585 0.724952
-11.904714 21.014759 0.711555
-11.643647 20.851208 0.703585
-11.394587 20.702597 0.696198
-11.119134 20.498889 0.687040
-10.851535 20.301793 0.678190
-10.621222 20.167598 0.671517
-10.397331 20.039756 0.665124
-10.189744 19.937973 0.659658
-9.966330 19.799697 0.653047
-9.762149 19.694033 0.647575
-9.553135 19.573280 0.641664
-9.385985 19.533982 0.638476
-9.271075 19.602041 0.638829
-9.138423 19.632346 0.637977
-9.027501 19.709251 0.638664
-8.893385 19.735395 0.637731
-8.729808 19.694131 0.634655
-8.574175 19.667895 0.632102
-8.412521 19.624927 0.629050
-8.240645 19.554439 0.625159
-8.067924 19.477691 0.621111
-7.873699 19.343654 0.615284
-7.612391 19.035346 0.603980
-7.171546 18.257114 0.577880
-6.592226 17.089704 0.539639
-6.300169 16.635859 0.524077
-6.324106 17.013529 0.534742
-6.117449 16.771967 0.525960
-5.998779 16.765465 0.524592
-5.940945 16.930625 0.528609
-5.856501 17.023594 0.530380
-5.730746 16.996364 0.528426
-5.590264 16.921972 0.525037
-5.455513 16.860720 0.522088
-5.340512 16.857756 0.520972
-5.228329 16.862324 0.520112
-5.119403 16.876410 0.519567
-5.019103 16.918791 0.519914
-4.918954 16.962226 0.520312
-4.813529 16.987661 0.520176
-4.703861 16.997570 0.519586
-4.578466 16.948333 0.517212
-4.457223 16.910988 0.515228
-4.342938 16.897409 0.513993
-4.226332 16.872464 0.512436
-4.121691 16.893839 0.512307
-4.014908 16.905981 0.511919
-3.908206 16.917774 0.511540
-3.806563 16.951395 0.511841
-3.702802 16.975912 0.511885
-3.604736 17.027437 0.512763
-3.506238 17.078695 0.513649
-3.405490 17.120554 0.514269
-3.307919 17.180304 0.515445
-3.205759 17.218102 0.515979
-3.103078 17.254281 0.516483
-3.000312 17.291225 0.517028
-2.901903 17.355626 0.518411
-2.810365 17.466383 0.521195
-2.714655 17.557776 0.523415
-2.617557 17.646135 0.525560
-2.524550 17.769680 0.528769
-2.431565 17.903339 0.532292
-2.341348 18.069818 0.536804
-2.251579 18.255323 0.541894
-2.162044 18.461080 0.547598
-2.057759 18.555436 0.550012
-1.917651 18.317300 0.542594
-1.731133 17.576485 0.520325
-1.606694 17.407378 0.515018
-1.082594 12.571516 0.371740
-1.427109 17.853004 0.527644
-1.372078 18.600814 0.549487
-1.247525 18.455105 0.544946
-1.151802 18.747888 0.553372
-1.053587 19.059272 0.562362
-0.947220 19.281115 0.568725
-0.834127 19.408279 0.572314
-0.725337 19.693013 0.580568
-0.612581 19.960759 0.588340
-0.497897 20.282090 0.597710
-0.379451 20.611312 0.607332
-0.256561 20.905387 0.615939
-0.130321 21.238737 0.625725
0.000000 21.520429 0.634012
0.133492 21.755486 0.640949
0.268282 21.860511 0.644080
0.401575 21.813059 0.642742
0.526646 21.453165 0.632221
0.614516 20.023818 0.590198
0.680657 18.479951 0.544806
0.812993 18.916538 0.557814
0.924555 18.819752 0.555116
1.064551 19.257612 0.568214
1.199706 19.527625 0.576387
1.341704 19.848326 0.586085
1.499809 20.332420 0.600640
1.620226 20.268886 0.599045
1.605200 18.640221 0.551191
1.801137 19.514020 0.577345
2.170262 20.730232 0.614070
2.330163 21.011786 0.622822
2.352874 20.090526 0.595931
2.571825 20.851805 0.618969
2.731638 21.081963 0.626287
2.840977 20.917793 0.621916
2.973330 20.928530 0.622766
3.118962 21.026332 0.626234
3.273142 21.169944 0.631097
3.459258 21.499244 0.641535
3.652657 21.845717 0.652530
3.833150 22.090990 0.660546
3.942068 21.919380 0.656126
3.985582 21.406523 0.641494
4.137564 21.489221 0.644721
4.204039 21.135133 0.634860
3.642692 17.743356 0.533639
4.926950 23.273086 0.700843
5.078861 23.284606 0.702116
5.175102 23.045774 0.695858
5.444777 23.569256 0.712660
5.609833 23.621895 0.715279
5.526635 22.652374 0.686935
5.477887 21.868951 0.664185
3.931360 15.296049 0.465282
6.263744 23.765044 0.724052
6.022296 22.293031 0.680317
5.817285 21.020967 0.642574
6.820586 24.070866 0.737070
7.644297 25.199869 0.775819
7.394155 23.847510 0.735567
7.558010 23.857465 0.737291
7.787336 24.067412 0.745241
7.262197 21.982985 0.682065
8.030122 23.815897 0.740449
8.529901 23.839476 0.745938
8.872120 24.324337 0.762798
8.622950 23.198031 0.729124
8.803731 23.246617 0.732335
9.017317 23.376516 0.738156
9.123018 23.225114 0.735129
9.321830 23.309924 0.739610
9.378799 23.041298 0.732899
9.622408 23.230548 0.740783
10.978992 26.052336 0.832897
11.794299 27.514017 0.881925
12.196946 27.977998 0.899179
12.468667 28.128862 0.906469
12.657156 28.087617 0.907626
12.858267 28.072755 0.909678
13.148354 28.247000 0.917921
13.530447 28.607726 0.932324
13.906304 28.941607 0.945968
14.308007 29.315469 0.961039
14.797441 29.852164 0.981592
15.411496 30.617385 1.009844
16.000895 31.308482 1.035857
16.959415 32.687477 1.084904
19.634949 37.282880 1.241402
20.468882 38.294585 1.279247
22.853108 42.131279 1.412071
24.997742 33.705554 1.236290
25.763328 34.295997 1.263722
24.390479 32.056961 1.186711
26.443377 34.316125 1.276325
29.309360 35.713559 1.361114
27.970655 33.659054 1.289330
27.314738 32.462441 1.249889
27.240631 31.974053 1.237497
27.085244 31.399325 1.221663
26.734412 30.610825 1.197344
26.395443 29.851020 1.173938
26.108508 29.163943 1.153196
26.028068 28.717548 1.141838
26.337557 28.703088 1.147667
26.941703 29.002241 1.166217
27.751109 29.508359 1.193393
28.433086 29.864205 1.214817
28.998660 30.086407 1.231071
29.475598 30.208064 1.243426
30.079904 30.451324 1.261013
31.152140 31.152140 1.297925
32.897276 32.496023 1.362301
33.846222 33.025541 1.393180
34.475174 33.228755 1.410650
35.194014 33.507487 1.431623
35.780923 33.650137 1.447071
36.408479 33.821747 1.464031
37.035587 33.983343 1.480835
37.262925 33.773146 1.481611
37.229963 33.329472 1.472141
37.067737 32.776747 1.457746
36.739807 32.087247 1.437080
34.970493 30.165755 1.360607
37.133605 31.636366 1.437188
50.195752 21.882727 1.613230
51.220505 21.956444 1.641804
52.081286 19.359157 1.636936
52.065726 18.990584 1.632754
50.921089 18.219857 1.593323
49.019876 17.201041 1.530502
47.460216 16.327387 1.478651
47.580072 16.042804 1.479290
51.922825 16.800331 1.607777
48.705686 15.429889 1.505200
46.969434 14.563334 1.448754
31.522334 9.562195 0.970466
33.709871 10.000320 1.035904
34.399420 9.975647 1.055193
34.191997 9.688454 1.046987
33.490302 9.268015 1.023740
35.277251 9.529887 1.076556
39.201282 10.332269 1.194349
38.200745 9.818279 1.162008
37.844372 9.479522 1.149377
36.616848 8.933631 1.110409
31.918972 7.580259 0.966517
29.089100 6.719926 0.879563
27.753524 6.232262 0.838007
27.068845 5.904283 0.816224
26.754517 5.663975 0.805683
26.567949 5.454372 0.799042
26.482919 5.267780 0.795497
26.367479 5.076830 0.791079
26.247345 4.886872 0.786560
26.112990 4.696263 0.781656
25.932550 4.499724 0.775413
25.770139 4.308830 0.769752
25.609342 4.120578 0.764180
25.470787 3.938108 0.759310
25.374739 3.763987 0.755744
25.294165 3.593559 0.752673
25.240271 3.428040 0.750429
25.189883 3.263911 0.748322
25.159855 3.103172 0.746850
25.147384 2.945101 0.745929
25.153254 2.789443 0.745582
25.186306 2.636771 0.746068
25.230351 2.484973 0.746907
25.279782 2.333314 0.747932
25.354650 2.183412 0.749737
25.426685 2.032523 0.751484
25.483767 1.879796 0.752816
25.543780 1.726704 0.754261
25.565930 1.570677 0.754617
25.605005 1.415432 0.755499
25.682350 1.261693 0.757539
25.798889 1.108782 0.760761
25.998764 0.957591 0.766468
26.272148 0.806272 0.774367
26.618428 0.653446 0.784440
26.995472 0.496983 0.795447
27.352016 0.335677 0.805877
27.716948 0.170071 0.816583
28.142069 -0.000000 0.829092
28.489365 -0.174811 0.839340
28.734403 -0.352642 0.846607
28.910473 -0.532237 0.851874
28.881299 -0.708996 0.851127
28.670022 -0.879861 0.845044
28.775406 -1.059861 0.848326
28.674845 -1.232384 0.845568
27.975228 -1.374335 0.825171
26.055067 -1.440311 0.768779
24.922888 -1.531171 0.735636
24.082137 -1.627900 0.711102
24.225138 -1.786954 0.715635
24.772334 -1.980217 0.732145
25.028388 -2.155316 0.740089
25.160105 -2.322268 0.744391
25.098015 -2.471939 0.742989
25.056880 -2.623222 0.742234
25.044445 -2.777377 0.742356
25.039288 -2.932441 0.742723
24.987714 -3.081941 0.741740
24.940038 -3.231538 0.740899
24.809781 -3.369572 0.737630
24.785679 -3.521318 0.737542
24.824735 -3.682402 0.739363
25.205712 -3.897124 0.751408
25.980643 -4.180321 0.775259
24.926055 -4.167697 0.744539
22.309458 -3.871058 0.667079
25.459486 -4.578734 0.762094
23.814405 -4.585258 0.714481
23.972866 -4.768499 0.720100
23.813785 -4.888945 0.716209
23.979724 -5.076546 0.722123
24.535647 -5.351739 0.739839
24.254823 -5.446603 0.732365
24.229939 -5.597402 0.732637
24.111408 -5.726084 0.730102
24.047109 -5.866917 0.729231
24.039530 -6.021589 0.730108
24.284520 -6.241559 0.738698
24.961205 -6.579016 0.760495
25.558333 -6.904393 0.779964
26.098506 -7.222429 0.797786
26.424196 -7.487413 0.809131
26.432720 -7.665347 0.810817
26.294601 -7.800517 0.808033
26.171455 -7.939024 0.805730
26.081528 -8.086834 0.804474
26.061697 -8.256307 0.805410
26.067382 -8.434453 0.807170
26.044804 -8.604041 0.808090
26.013832 -8.771210 0.808784
25.974052 -8.935661 0.809237
25.944208 -9.103805 0.810032
25.936171 -9.280110 0.811544
25.928035 -9.457057 0.813090
25.944507 -9.643844 0.815447
25.960631 -9.831555 0.817834
25.941694 -10.006816 0.819156
25.894048 -10.171397 0.819607
25.780615 -10.309879 0.818004
25.651680 -10.441337 0.815930
25.552517 -10.584199 0.814826
25.466072 -10.731929 0.814154
25.419535 -10.896468 0.814789
25.358308 -11.054898 0.814985
25.285246 -11.208179 0.814832
25.203092 -11.357299 0.814415
25.106450 -11.499600 0.813557
25.026867 -11.649454 0.813279
24.929367 -11.790713 0.812446
24.798757 -11.915684 0.810557
24.618585 -12.015598 0.807063
24.397625 -12.093676 0.802237
24.167605 -12.164950 0.797113
23.992979 -12.262144 0.793820
23.821514 -12.359441 0.790641
23.517886 -12.385644 0.783071
22.753492 -12.161995 0.760090
21.763090 -11.804870 0.729411
21.612506 -11.895395 0.726797
21.350143 -11.922260 0.720420
20.730807 -11.743857 0.701940
20.106981 -11.554002 0.683206
19.467159 -11.345798 0.663818
18.883712 -11.161541 0.646246
18.573024 -11.132242 0.637939
18.680945 -11.353309 0.644027
18.979303 -11.694703 0.656774
19.310147 -12.062658 0.670772
19.696314 -12.472553 0.686832
19.911229 -12.780482 0.697047
20.378016 -13.257353 0.716223
20.615476 -13.592595 0.727487
20.505557 -13.701375 0.726561
24.392985 -16.516263 0.867876
39.592010 -27.163170 1.414544
38.663523 -26.876540 1.387237
38.912806 -27.405490 1.402189
37.761316 -26.942654 1.366627
37.781315 -27.308306 1.373390
37.772005 -27.656003 1.379194
37.437683 -27.765678 1.373181
37.475531 -28.151810 1.380880
37.980374 -28.897297 1.405989
38.065341 -29.332454 1.415770
38.074485 -29.713620 1.422865
38.045884 -30.068736 1.428664
38.237294 -30.603044 1.442876
38.573633 -31.262447 1.462779
38.300183 -31.432148 1.459695
37.632349 -31.272461 1.441529
37.006616 -31.138325 1.424852
35.995059 -30.666370 1.393123
35.135599 -30.308176 1.367031
34.965607 -30.537724 1.367682
29.855268 -26.727405 1.180532
32.126670 -29.117917 1.277388
18.396990 -16.880824 0.735587
26.960634 -26.631791 1.116460
27.015543 -27.015543 1.125578
26.321940 -26.646957 1.103471
27.116224 -27.790059 1.143896
26.684343 -27.685280 1.132822
26.596489 -27.935166 1.136348
26.446816 -28.121476 1.137304
26.236463 -28.243063 1.135689
26.068909 -28.410311 1.135961
25.790980 -28.455961 1.131437
25.490339 -28.473430 1.125892
25.039558 -28.317628 1.113635
24.584384 -28.149050 1.101052
24.212653 -28.069194 1.092096
23.134743 -27.154711 1.050974
21.471447 -25.517930 0.982507
20.580184 -24.765581 0.948660
20.088152 -24.477484 0.932885
19.649001 -24.244211 0.919382
19.250587 -24.052847 0.907629
18.928001 -23.949544 0.899331
18.630312 -23.872539 0.892130
18.370807 -23.840182 0.886692
18.106565 -23.797869 0.880969
17.881151 -23.803287 0.877092
17.651092 -23.799743 0.872954
17.408242 -23.775822 0.868142
17.180528 -23.769432 0.864043
16.907614 -23.696766 0.857614
16.606331 -23.579178 0.849655
16.303053 -23.452925 0.841485
16.120670 -23.496879 0.839497
16.105064 -23.785682 0.846269
16.093792 -24.086062 0.853427
15.997078 -24.262282 0.856176
15.835998 -24.341677 0.855533
15.655709 -24.390663 0.853862
15.451410 -24.400442 0.850870
15.249828 -24.412232 0.848002
15.115425 -24.530783 0.848882
15.018029 -24.710944 0.851912
14.954783 -24.950548 0.856992
14.905455 -25.217873 0.863017
14.868218 -25.510939 0.869908
14.849288 -25.841639 0.878061
14.848884 -26.211947 0.887531
14.870918 -26.630540 0.898598
14.952948 -27.167714 0.913610
15.184002 -27.992754 0.938204
15.669844 -29.316215 0.979320
16.579973 -31.482085 1.048254
17.917021 -34.533161 1.146163
18.567586 -36.330652 1.202018
18.718993 -37.188253 1.226569
18.721087 -37.767677 1.241868
18.533233 -37.972473 1.244839
18.262624 -38.007919 1.242304
17.925597 -37.900490 1.235174
17.564317 -37.733944 1.226211
17.129223 -37.397300 1.211833
16.569021 -36.768473 1.188140
16.036672 -36.178153 1.165862
15.470580 -35.487233 1.140517
14.464778 -33.743772 1.081611
13.541927 -32.133991 1.027329
13.133678 -31.707505 1.011099
13.126214 -32.247732 1.025738
13.151030 -32.885122 1.043426
13.346434 -33.976964 1.075450
14.618922 -37.898131 1.196703
14.404484 -38.035638 1.198231
14.184222 -38.159334 1.199364
14.136080 -38.756326 1.215378
13.934070 -38.943117 1.218532
13.622012 -38.820286 1.212050
13.342404 -38.783511 1.208323
13.031049 -38.647748 1.201579
12.642310 -38.268817 1.187364
12.261020 -37.893706 1.173369
11.849671 -37.404437 1.155946
11.130270 -35.897170 1.107234
10.336537 -34.074996 1.049054
9.775918 -32.953440 1.012659
9.278253 -31.994569 0.981425
8.821150 -31.131154 0.953262
8.399567 -30.352134 0.927812
7.921020 -29.321630 0.894808
6.853371 -26.002124 0.792209
4.957366 -19.288011 0.586712
4.321404 -17.252010 0.523963
4.106022 -16.829614 0.510360
4.032371 -16.979518 0.514146
3.996318 -17.299195 0.523073
3.915213 -17.435236 0.526450
3.805220 -17.445458 0.526044
3.675228 -17.360415 0.522790
3.548671 -17.285383 0.519865
3.425047 -17.218873 0.517223
3.306358 -17.172193 0.515201
3.196020 -17.165792 0.514411
3.090810 -17.186066 0.514441
2.985833 -17.207779 0.514533
2.883065 -17.242962 0.515046
2.780318 -17.279644 0.515622
2.675640 -17.305436 0.515892
2.567763 -17.310455 0.515563
2.463117 -17.337267 0.515901
2.361919 -17.390544 0.517046
2.259698 -17.439670 0.518084
2.153543 -17.460464 0.518300
2.043530 -17.449123 0.517581
1.932761 -17.428288 0.516602
1.826602 -17.447614 0.516832
1.729764 -17.562589 0.519914
1.636722 -17.732708 0.524643
1.558106 -18.093350 0.535020
1.469591 -18.384454 0.543351
1.341043 -18.180070 0.537057
1.177053 -17.412590 0.514162
1.106243 -18.006326 0.531484
0.905970 -16.388885 0.483569
0.912757 -18.579603 0.548033
0.797136 -18.547581 0.546934
0.695055 -18.870849 0.556330
0.589054 -19.194166 0.565745
0.479200 -19.520427 0.575264
0.362983 -19.716779 0.580973
0.247613 -20.176293 0.594458
0.123405 -20.111596 0.592518
0.000000 -20.008309 0.589464
-0.123530 -20.132037 0.593120
-0.247600 -20.175262 0.594427
-0.374154 -20.323566 0.598853
-0.527224 -21.476711 0.632915
-0.689730 -22.474658 0.662437
-0.860713 -23.368505 0.688925
-1.092142 -25.411707 0.749344
-1.929943 -39.284892 1.158766
-2.134618 -38.614992 1.139371
-2.451864 -39.909016 1.177974
-2.762181 -40.861974 1.206580
-3.066132 -41.566532 1.227917
-3.589208 -44.900676 1.327036
-4.511774 -52.392519 1.549246
-4.879402 -52.864812 1.564068
-5.311808 -53.931694 1.596567
-5.682765 -54.281486 1.607924
-6.026754 -54.345066 1.610872
-6.167219 -52.660138 1.562021
-6.359487 -51.561357 1.530557
-6.726602 -51.913889 1.542218
-6.275715 -46.207383 1.373811
-6.387235 -44.958155 1.337810
-7.356024 -49.590283 1.476963
-7.621101 -49.291552 1.469431
-7.937021 -49.328490 1.471956
-8.375292 -50.090728 1.496206
-8.776250 -50.578773 1.512364
-9.153077 -50.894552 1.523457
-9.357344 -50.258206 1.506099
-9.378551 -48.709276 1.461379
-9.612691 -48.326261 1.451630
-9.931994 -48.378203 1.454994
-9.935264 -46.930504 1.413260
-9.578576 -43.914057 1.324168
-8.621794 -38.394593 1.159310
-10.920268 -47.271468 1.429340
-12.308053 -51.826776 1.569332
-9.748933 -39.958578 1.211748
-29.150217 -44.211247 1.560143
-26.387348 -39.491457 1.399276
-22.746467 -33.594417 1.195253
-22.526843 -32.834275 1.173104
-19.579692 -28.166567 1.010609
-14.791913 -21.002903 0.756821
-14.726130 -20.639320 0.746962
-14.678146 -20.307361 0.738193
-14.617490 -19.964270 0.728968
-14.623817 -19.717935 0.723237
-14.479330 -19.274802 0.710228
-14.127787 -18.568471 0.687383
-13.598758 -17.647393 0.656362
-13.195411 -16.908357 0.631875
-13.133115 -16.617292 0.623997
-13.320859 -16.643887 0.628053
-13.428695 -16.569194 0.628332
-13.524675 -16.479864 0.628080
-13.487454 -16.230401 0.621715
-13.477288 -16.017202 0.616704
-13.422478 -15.754812 0.609761
-13.323163 -15.445249 0.600933
-13.106544 -15.006956 0.586998
-12.993919 -14.695027 0.577905
-12.986062 -14.505799 0.573586
-12.890619 -14.222607 0.565505
-12.771603 -13.918696 0.556527
-13.463502 -14.493209 0.582790
-14.748993 -15.682926 0.634257
-15.391592 -16.166295 0.657613
-15.602013 -16.187249 0.662347
-15.636942 -16.025518 0.659643
-15.579858 -15.772235 0.653140
-15.509740 -15.509740 0.646199
-15.427884 -15.239708 0.638880
-15.429408 -15.055285 0.635106
-15.440905 -14.882653 0.631809
-15.531242 -14.786972 0.631780
-15.620252 -14.690051 0.631723
-15.680325 -14.566277 0.630526
-15.759225 -14.460447 0.630118
-15.818988 -14.337495 0.628979
-15.845826 -14.185698 0.626573
-15.887454 -14.048310 0.624799
-15.886342 -13.874569 0.621395
-15.838739 -13.662590 0.616243
-15.803358 -13.463837 0.611640
-15.783915 -13.280995 0.607722
-15.805799 -13.134610 0.605450
-15.818055 -12.981542 0.602857
-15.837812 -12.835938 0.600597
-15.840965 -12.678244 0.597755
-15.765523 -12.459938 0.592012
-15.709474 -12.259794 0.587072
-15.619665 -12.036227 0.580945
-15.592444 -11.863483 0.577214
-15.611094 -11.727133 0.575230
-15.656024 -11.611299 0.574249
-15.807097 -11.573681 0.577175
-15.971977 -11.544533 0.580598
-16.101640 -11.488501 0.582738
-16.231424 -11.431459 0.584885
-16.243914 -11.291785 0.582828
-16.170623 -11.094294 0.577744
-16.032560 -10.855497 0.570421
-15.760632 -10.530918 0.558437
-15.605931 -10.289605 0.550708
-15.703517 -10.216259 0.551929
-15.815400 -10.151479 0.553662
-15.854209 -10.039567 0.552853
-15.735632 -9.829731 0.546605
-15.489734 -9.544494 0.536019
-15.279699 -9.286208 0.526769
-15.069391 -9.032245 0.517598
-14.989385 -8.859732 0.512973
-15.146682 -8.827749 0.516493
-15.336351 -8.812672 0.521107
-15.479079 -8.768790 0.524118
-15.536179 -8.675650 0.524239
-15.553274 -8.560430 0.523034
-15.568305 -8.444656 0.521787
-15.564847 -8.319584 0.519950
-15.574881 -8.202478 0.518594
-15.583001 -8.085010 0.517203
-15.548793 -7.946556 0.514440
-15.592464 -7.848587 0.514282
-15.761891 -7.813023 0.518279
-15.895886 -7.758309 0.521110
-15.916066 -7.647594 0.520223
-16.071044 -7.601038 0.523754
-16.206394 -7.543718 0.526647
-16.377359 -7.501382 0.530697
-16.465735 -7.419974 0.532075
-16.500067 -7.313977 0.531724
-16.527124 -7.204963 0.531162
-16.549086 -7.094016 0.530459
-16.511356 -6.958226 0.527871
-16.324940 -6.762012 0.520575
-16.065466 -6.539336 0.511011
-15.819671 -6.326416 0.501949
-15.728392 -6.178243 0.497840
