-12.026238 14.472017 -2.331243
-12.068724 14.705782 -2.356926
-12.250166 15.115049 -2.410428
-12.134469 15.161539 -2.405922
-11.701263 14.805574 -2.337998
-11.504051 14.741079 -2.316623
-11.536974 14.971773 -2.341708
-11.561216 15.195169 -2.365509
-11.441461 15.230808 -2.360084
-11.316582 15.258644 -2.353593
-11.220181 15.324295 -2.353056
-11.148712 15.424355 -2.357872
-11.073842 15.520477 -2.362134
-10.986173 15.599167 -2.363806
-10.889486 15.665183 -2.363640
-10.792111 15.730173 -2.363410
-10.688637 15.786123 -2.361918
-10.580807 15.835297 -2.359517
-10.467857 15.876280 -2.356008
-10.354175 15.915510 -2.352357
-10.241531 15.955695 -2.348965
-10.119927 15.981112 -2.343521
-10.013092 16.029160 -2.341513
-9.908768 16.080912 -2.340147
-9.802761 16.129646 -2.338441
-9.703247 16.188890 -2.338355
-9.601851 16.244942 -2.337897
-9.489610 16.282305 -2.334850
-9.380697 16.324863 -2.332655
-9.263250 16.351924 -2.328356
-9.154868 16.394352 -2.326355
-9.058868 16.458876 -2.327580
-8.951335 16.502404 -2.325924
-8.859494 16.574948 -2.328443
-8.754566 16.623187 -2.327629
-8.643739 16.659892 -2.325298
-8.537565 16.705204 -2.324267
-8.421119 16.729889 -2.320469
-8.321358 16.787400 -2.321320
-8.218841 16.839465 -2.321502
-8.113064 16.884797 -2.320845
-8.011233 16.938329 -2.321403
-7.899203 16.970091 -2.319069
-7.795998 17.020578 -2.319388
-7.687743 17.059943 -2.318280
-7.587544 17.117225 -2.319694
-7.491010 17.183273 -2.322372
-7.391756 17.243661 -2.324360
-7.296640 17.314385 -2.327814
-7.196380 17.373597 -2.329795
-7.090416 17.419329 -2.330049
-6.977964 17.448916 -2.328236
-6.868489 17.485600 -2.327463
-6.757975 17.519392 -2.326398
-6.653364 17.568483 -2.327452
-6.546602 17.612101 -2.327865
-6.436722 17.647305 -2.327253
-6.327603 17.684464 -2.326990
-6.206735 17.688078 -2.322410
-6.088381 17.697620 -2.318714
-5.968394 17.701185 -2.314340
-5.848500 17.703663 -2.309928
-5.734451 17.722800 -2.307791
-5.622165 17.746817 -2.306382
-5.515030 17.786989 -2.307162
-5.400401 17.802737 -2.304863
-5.285637 17.817246 -2.302499
-5.169306 17.825523 -2.299427
-5.052778 17.832007 -2.296220
-4.940253 17.851780 -2.294820
-4.828245 17.872954 -2.293690
-4.714069 17.885475 -2.291542
-4.600676 17.900209 -2.289770
-4.487128 17.913620 -2.287920
-4.371538 17.917902 -2.284998
-4.261668 17.945042 -2.285081
-4.150857 17.968158 -2.284739
-4.042498 18.002062 -2.285853
-3.937444 18.051651 -2.289038
-3.827055 18.077588 -2.289306
-3.718085 18.110589 -2.290553
-3.607994 18.138613 -2.291255
-3.498397 18.169584 -2.292412
-3.386073 18.186564 -2.291890
-3.269528 18.179806 -2.288467
-3.153022 18.171315 -2.284920
-3.042148 18.194397 -2.285432
-2.931370 18.218432 -2.286149
-2.815929 18.212789 -2.283229
-2.697865 18.187529 -2.277944
-2.578462 18.149152 -2.271113
-2.462117 18.128289 -2.266570
-2.347209 18.115055 -2.263072
-2.235164 18.122227 -2.262212
-2.124939 18.144258 -2.263292
-2.015617 18.175424 -2.265594
-1.905030 18.196746 -2.266752
-1.794753 18.222437 -2.268538
-1.683382 18.238237 -2.269176
-1.570568 18.238066 -2.267913
-1.455846 18.212511 -2.263582
-1.338822 18.149972 -2.254745
-1.221364 18.068091 -2.243600
-1.107607 18.028532 -2.237802
-0.998038 18.054395 -2.240210
-0.889653 18.109305 -2.246303
-0.779259 18.131613 -2.248435
-0.666539 18.096653 -2.243551
-0.555267 18.093224 -2.242661
-0.445019 18.128058 -2.246598
-0.334971 18.195194 -2.254621
-0.223927 18.246288 -2.260739
-0.112174 18.281216 -2.264939
0.000000 18.318151 -2.269472
0.112608 18.352000 -2.273709
0.225559 18.379281 -2.277217
0.338804 18.403407 -2.280421
0.452185 18.419973 -2.282775
0.565771 18.435479 -2.285083
0.679638 18.452297 -2.287642
0.793523 18.463506 -2.289592
0.907175 18.465973 -2.290545
1.020222 18.455692 -2.290003
1.132690 18.436798 -2.288478
1.245041 18.418349 -2.287093
1.357795 18.407174 -2.286697
1.470929 18.401197 -2.287033
1.585146 18.407344 -2.288963
1.699889 18.417077 -2.291427
1.814123 18.419102 -2.293021
1.930242 18.437571 -2.296751
2.044720 18.437859 -2.298307
2.158280 18.428940 -2.298802
2.272459 18.424613 -2.299959
2.386087 18.415102 -2.300556
2.498092 18.393171 -2.299688
2.605892 18.342222 -2.295273
2.710889 18.275327 -2.288941
2.816209 18.214604 -2.283457
2.927503 18.194397 -2.283132
3.049290 18.237113 -2.290797
3.163633 18.232465 -2.292609
3.264659 18.152733 -2.285059
3.379465 18.151076 -2.287418
3.518605 18.274541 -2.305654
3.618909 18.193482 -2.298186
3.705638 18.049964 -2.282886
3.821095 18.049438 -2.285742
3.950190 18.110090 -2.296449
4.071833 18.132698 -2.302440
4.177583 18.083852 -2.299450
4.283062 18.035126 -2.296552
4.392481 18.003744 -2.295945
4.506102 17.989366 -2.297594
4.619027 17.971611 -2.298903
4.731992 17.953479 -2.300255
4.843937 17.931041 -2.301145
4.953409 17.899321 -2.300931
5.065014 17.875189 -2.301781
5.176843 17.851515 -2.302779
5.293882 17.845036 -2.306091
5.406016 17.821247 -2.307260
5.519176 17.800359 -2.308896
5.626720 17.761193 -2.308251
5.730558 17.710768 -2.306224
5.832229 17.654409 -2.303502
5.934902 17.601854 -2.301353
6.032826 17.536133 -2.297557
6.138439 17.493448 -2.296856
6.246036 17.456501 -2.296994
6.352736 17.417042 -2.296887
6.464749 17.391897 -2.298759
6.576325 17.365059 -2.300502
6.689751 17.342528 -2.302912
6.800050 17.311369 -2.304272
6.912706 17.285731 -2.306462
7.026509 17.262324 -2.309048
7.143160 17.245114 -2.312565
7.254295 17.213906 -2.314305
7.375982 17.206863 -2.319400
7.459109 17.110097 -2.312482
7.510419 16.943233 -2.296115
7.549865 16.753977 -2.276703
7.735735 16.889008 -2.301459
7.880263 16.929403 -2.313509
7.931574 16.769903 -2.298320
7.974998 16.597455 -2.281349
8.148788 16.695934 -2.301715
8.324475 16.793689 -2.322190
8.433462 16.754411 -2.323870
8.534586 16.699375 -2.323456
8.683363 16.736263 -2.335958
8.811604 16.731492 -2.342794
8.887577 16.627486 -2.335823
8.903914 16.414979 -2.313602
9.072975 16.484507 -2.331204
9.240404 16.547529 -2.348091
9.207915 16.254244 -2.314447
9.233459 16.068630 -2.296042
9.337374 16.021097 -2.297393
9.503727 16.078931 -2.314005
9.706823 16.194855 -2.339216
9.779034 16.090604 -2.332781
9.714282 15.765282 -2.294215
9.738647 15.589822 -2.277335
9.887977 15.614822 -2.289807
10.063671 15.678600 -2.308171
10.180109 15.647952 -2.312812
10.262604 15.564980 -2.309812
10.356863 15.500141 -2.309577
10.447865 15.430525 -2.308713
10.525191 15.341120 -2.304956
10.615755 15.271404 -2.304224
10.711843 15.209648 -2.304781
10.829166 15.177553 -2.309943
10.939680 15.135156 -2.313663
11.074457 15.125268 -2.322495
11.209527 15.114298 -2.331328
11.329870 15.082259 -2.337066
11.418366 15.007418 -2.336281
11.473592 14.889521 -2.328844
11.544297 14.792650 -2.324728
11.663717 14.758068 -2.330496
11.721505 14.645557 -2.324043
11.721102 14.462255 -2.306325
11.360994 13.843411 -2.218712
11.201966 13.480112 -2.171461
6.774035 8.050661 -1.303522
2.666116 3.052695 -0.502139
12.517276 13.641526 -2.293754
12.935589 13.924920 -2.354707
12.435858 13.223319 -2.248927
12.131256 12.741857 -2.179662
12.709350 13.186081 -2.268950
13.916401 13.746661 -2.423464
14.111003 13.768848 -2.442594
13.968833 13.463802 -2.403639
14.166038 13.487190 -2.423287
14.270574 13.420749 -2.427037
14.169707 13.162984 -2.396100
14.150197 12.984025 -2.379284
14.205906 12.875483 -2.375323
14.316746 12.816816 -2.380661
14.436931 12.765701 -2.387576
14.538035 12.697005 -2.391367
14.611298 12.603793 -2.390652
14.687967 12.513568 -2.390588
14.704347 12.372618 -2.380853
14.665345 12.186893 -2.362386
14.645716 12.019429 -2.347299
14.713130 11.924426 -2.346333
14.742048 11.798731 -2.339355
14.721966 11.635185 -2.324795
14.892038 11.621860 -2.340347
15.071122 11.613530 -2.357247
15.184773 11.553307 -2.363891
15.224515 11.436734 -2.359109
15.266910 11.322712 -2.354868
15.327574 11.222582 -2.353559
15.373642 11.112057 -2.350119
15.391934 10.982127 -2.342570
15.384630 10.835079 -2.331296
15.370457 10.684611 -2.319170
15.411260 10.573312 -2.315494
15.488819 10.487335 -2.317435
15.524387 10.373064 -2.313190
15.618177 10.297679 -2.317706
15.753331 10.248666 -2.328387
15.867128 10.184682 -2.335926
15.938711 10.093077 -2.337303
15.968111 9.974956 -2.332595
15.987770 9.851375 -2.326593
16.009002 9.729441 -2.320951
16.045085 9.617054 -2.317583
16.100413 9.516425 -2.317097
16.156616 9.416356 -2.316826
16.198330 9.307988 -2.314575
16.216724 9.186661 -2.309105
16.225462 9.060556 -2.302389
16.234955 8.935623 -2.295913
16.241299 8.809705 -2.289123
16.247518 8.684479 -2.282446
16.249327 8.557673 -2.275280
16.259040 8.435763 -2.269350
16.299650 8.330298 -2.267841
16.362838 8.236361 -2.269558
16.441700 8.149998 -2.273517
16.507769 8.056951 -2.275774
16.568548 7.961108 -2.277376
16.620907 7.861104 -2.277900
16.661090 7.755369 -2.276842
16.690153 7.644652 -2.274361
16.702344 7.526597 -2.269686
16.695362 7.400545 -2.262524
16.688847 7.275466 -2.255549
16.692067 7.155307 -2.250008
16.702332 7.038708 -2.245527
16.727412 6.928721 -2.243141
16.761950 6.822835 -2.242116
16.807687 6.721532 -2.242675
16.841659 6.615544 -2.241750
16.854691 6.501572 -2.238132
16.821907 6.370628 -2.228546
16.785101 6.239197 -2.218556
16.778033 6.119662 -2.212617
16.851186 6.029451 -2.217344
16.916644 5.936039 -2.221122
16.939176 5.827459 -2.219344
16.997201 5.731029 -2.222297
17.061691 5.636421 -2.226165
17.100794 5.533193 -2.226796
17.104802 5.418776 -2.222946
17.071171 5.293084 -2.214313
17.048497 5.171605 -2.207214
17.017637 5.048427 -2.199167
16.986603 4.926024 -2.191209
16.952371 4.803529 -2.182950
16.937616 4.687270 -2.177306
16.969444 4.584169 -2.177740
17.041789 4.491699 -2.183446
17.156563 4.409545 -2.194643
17.266627 4.325065 -2.205286
17.339672 4.230463 -2.211259
17.372823 4.125775 -2.212216
17.363335 4.011136 -2.207832
17.357300 3.897712 -2.203982
17.359782 3.786532 -2.201306
17.342747 3.671488 -2.196248
17.390128 3.570175 -2.199432
17.458695 3.472750 -2.205368
17.542597 3.377676 -2.213307
17.609231 3.278582 -2.219134
17.632791 3.171151 -2.219609
17.634873 3.059941 -2.217466
17.630711 2.947898 -2.214626
17.627725 2.836325 -2.212023
17.635516 2.726675 -2.210860
17.671112 2.621262 -2.213264
17.714600 2.516725 -2.216735
17.762210 2.412397 -2.220799
17.793636 2.305562 -2.222917
17.809980 2.196652 -2.223234
17.828788 2.087994 -2.223940
17.839480 1.978361 -2.223718
17.839340 1.867613 -2.222230
17.848509 1.757925 -2.221987
17.826730 1.645400 -2.217977
17.803476 1.533144 -2.213871
17.784513 1.421634 -2.210387
17.752045 1.309469 -2.205311
17.731033 1.198579 -2.201746
17.733725 1.089495 -2.201209
17.748126 0.981108 -2.202208
17.780462 0.873498 -2.205513
17.790580 0.764602 -2.206145
17.792348 0.655331 -2.205824
17.776212 0.545539 -2.203367
17.746013 0.435640 -2.199251
17.724595 0.326307 -2.196307
17.723322 0.217509 -2.195943
17.734120 0.108817 -2.197157
17.768229 -0.000000 -2.201341
17.810540 -0.109285 -2.206625
17.857339 -0.219154 -2.212548
17.895670 -0.329457 -2.217506
17.919882 -0.439908 -2.220799
17.936102 -0.550445 -2.223185
17.957328 -0.661408 -2.226278
17.986837 -0.773036 -2.230482
18.006341 -0.884595 -2.233532
18.038459 -0.997157 -2.238233
18.082614 -1.110930 -2.244515
18.118646 -1.224781 -2.249878
18.130423 -1.337380 -2.252317
18.132906 -1.449483 -2.253688
18.118013 -1.560230 -2.252984
18.106233 -1.671198 -2.252752
18.107068 -1.783391 -2.254175
18.097398 -1.894629 -2.254376
18.096961 -2.006915 -2.255813
18.096239 -2.119316 -2.257302
18.098647 -2.232255 -2.259268
18.125954 -2.348622 -2.264433
18.146001 -2.464522 -2.268784
18.142398 -2.577503 -2.270268
18.126635 -2.688832 -2.270318
18.092280 -2.797297 -2.268122
18.027408 -2.900635 -2.262178
17.977639 -3.005905 -2.258205
17.928940 -3.110966 -2.254443
17.911142 -3.221210 -2.254648
17.924667 -3.337311 -2.258885
17.927246 -3.451736 -2.261837
17.899070 -3.560346 -2.260996
17.841414 -3.662823 -2.256509
17.787424 -3.765627 -2.252561
17.722574 -3.865665 -2.247310
17.674362 -3.968911 -2.244242
17.620695 -4.070589 -2.240557
17.575473 -4.173902 -2.238021
17.532746 -4.277569 -2.235881
17.495495 -4.382393 -2.234517
17.445344 -4.483767 -2.231584
17.382355 -4.581461 -2.227081
17.307983 -4.675623 -2.221186
17.245653 -4.772515 -2.216903
17.198059 -4.873146 -2.214587
17.158920 -4.975995 -2.213437
17.130185 -5.081815 -2.213711
17.098730 -5.186843 -2.213718
17.062341 -5.290346 -2.213167
17.024318 -5.393279 -2.212486
16.973892 -5.492132 -2.210271
16.932215 -5.593648 -2.209272
16.884482 -5.693023 -2.207560
16.834428 -5.791424 -2.205620
16.806634 -5.897437 -2.206678
16.787453 -6.006647 -2.208958
16.775791 -6.118844 -2.212322
16.792498 -6.241947 -2.219534
16.798652 -6.361821 -2.225465
16.795340 -6.478678 -2.230251
16.774946 -6.589338 -2.232870
16.740847 -6.694802 -2.233757
16.695163 -6.795650 -2.233183
16.649166 -6.896311 -2.232649
16.613428 -7.001242 -2.233575
16.581002 -7.107697 -2.235037
16.553862 -7.216619 -2.237305
16.529533 -7.327038 -2.240051
16.516552 -7.442874 -2.244439
16.509932 -7.562105 -2.249802
16.501854 -7.681248 -2.255082
16.501131 -7.804454 -2.261485
16.474954 -7.916137 -2.264511
16.460792 -8.034022 -2.269298
16.441168 -8.149734 -2.273444
16.416941 -8.263594 -2.277062
16.380091 -8.371409 -2.279033
16.317536 -8.466112 -2.277514
16.256505 -8.561454 -2.276285
16.182181 -8.649556 -2.273267
16.103423 -8.734918 -2.269690
16.016868 -8.815589 -2.265072
15.926246 -8.893470 -2.259931
15.838844 -8.972594 -2.255298
15.754409 -9.052899 -2.251143
15.677447 -9.137088 -2.248115
15.602469 -9.222106 -2.245435
15.538884 -9.313649 -2.244467
15.454552 -9.392474 -2.240568
15.363784 -9.466886 -2.235788
15.282296 -9.546541 -2.232412
15.200998 -9.625926 -2.229122
15.123676 -9.707481 -2.226476
15.045546 -9.788202 -2.223774
14.967228 -9.868483 -2.221107
14.892913 -9.951126 -2.219098
14.815556 -10.031475 -2.216701
14.742440 -10.114450 -2.215006
14.658706 -10.189845 -2.211778
14.587432 -10.273629 -2.210493
14.501871 -10.347068 -2.207107
14.416578 -10.420292 -2.203816
14.322612 -10.486767 -2.199247
14.216162 -10.543424 -2.192794
14.111360 -10.600526 -2.186620
14.008363 -10.658237 -2.180753
13.947597 -10.747763 -2.181519
13.880158 -10.832182 -2.181326
13.821392 -10.923436 -2.182583
13.808621 -11.051667 -2.191233
13.802431 -11.186339 -2.201102
13.771377 -11.301877 -2.207167
13.720424 -11.401665 -2.210172
13.676231 -11.507535 -2.214386
13.637797 -11.618865 -2.219664
13.590867 -11.723562 -2.223692
13.542216 -11.827292 -2.227564
13.483833 -11.922934 -2.229953
13.427355 -12.020604 -2.232769
13.393475 -12.139139 -2.239479
13.349464 -12.249284 -2.244645
13.298138 -12.353338 -2.248718
13.246025 -12.457212 -2.252789
13.178070 -12.546565 -2.254282
13.118872 -12.644571 -2.257385
13.050908 -12.734458 -2.259094
12.985880 -12.827489 -2.261419
12.923289 -12.923289 -2.264286
12.863394 -13.022229 -2.267749
12.832931 -13.151828 -2.276563
12.798467 -13.278541 -2.284860
12.773897 -13.416844 -2.295128
12.738566 -13.545195 -2.303669
12.679539 -13.649287 -2.308097
12.612616 -13.745429 -2.311224
12.516028 -13.809308 -2.309009
12.394987 -13.845552 -2.302309
12.267361 -13.873351 -2.294371
12.147302 -13.908627 -2.287835
12.030667 -13.946886 -2.281943
11.936411 -14.010521 -2.280328
11.858010 -14.092757 -2.281827
11.772252 -14.166378 -2.282009
11.699094 -14.255388 -2.284741
11.621414 -14.339253 -2.286710
11.547818 -14.428542 -2.289606
11.482118 -14.528291 -2.294212
11.397946 -14.605118 -2.295256
11.321032 -14.691541 -2.297878
11.252036 -14.788806 -2.302249
11.171670 -14.871664 -2.304433
11.102224 -14.969616 -2.309012
11.006769 -15.032821 -2.308300
10.915439 -15.101619 -2.308536
10.829542 -15.178080 -2.310023
10.754978 -15.270896 -2.314062
10.687764 -15.374993 -2.319855
10.600940 -15.451530 -2.321544
10.498585 -15.505434 -2.319921
10.389275 -15.548650 -2.316805
10.258444 -15.558670 -2.308876
10.125560 -15.564104 -2.300419
10.004764 -15.586826 -2.294660
9.871913 -15.589454 -2.286087
9.768631 -15.637822 -2.284347
9.683228 -15.714885 -2.286881
9.589709 -15.779085 -2.287618
9.502148 -15.853377 -2.289893
9.385423 -15.878777 -2.285200
9.254654 -15.879166 -2.277041
9.143008 -15.911222 -2.273550
9.031068 -15.942064 -2.269996
8.932527 -15.996190 -2.269856
8.839698 -16.060672 -2.271266
8.735412 -16.104333 -2.269818
8.627499 -16.140916 -2.267470
8.505719 -16.150676 -2.261467
8.386679 -16.164436 -2.256145
8.281444 -16.204060 -2.254541
8.177786 -16.246470 -2.253418
8.090031 -16.320723 -2.256789
7.995282 -16.381418 -2.258356
7.893552 -16.427950 -2.258051
7.790229 -16.471054 -2.257363
7.668115 -16.473638 -2.251226
7.544345 -16.471158 -2.244519
7.421314 -16.468709 -2.237937
7.297684 -16.463312 -2.231077
7.194218 -16.502477 -2.230360
7.096777 -16.555528 -2.231603
7.003750 -16.619380 -2.234375
6.916335 -16.697510 -2.239131
6.817278 -16.748299 -2.240291
6.718791 -16.800832 -2.241761
6.612756 -16.834562 -2.240805
6.506035 -16.866262 -2.239669
6.408072 -16.920781 -2.241645
6.304663 -16.961222 -2.241835
6.202161 -17.004218 -2.242446
6.102672 -17.055825 -2.244271
5.993208 -17.079566 -2.242514
5.890549 -17.122565 -2.243372
5.789704 -17.171222 -2.245050
5.680786 -17.195985 -2.243688
5.575656 -17.232031 -2.243885
5.470917 -17.269388 -2.244336
5.356311 -17.275089 -2.240763
5.244138 -17.287605 -2.238171
5.129210 -17.289948 -2.234357
5.014345 -17.291164 -2.230496
4.909588 -17.326667 -2.231148
4.801900 -17.351837 -2.230553
4.699252 -17.395452 -2.232411
4.592944 -17.425921 -2.232662
4.481448 -17.436322 -2.230430
4.369325 -17.443325 -2.227854
4.249191 -17.416433 -2.221048
4.129433 -17.388224 -2.214177
4.018397 -17.394770 -2.211829
3.905186 -17.390581 -2.208208
3.802489 -17.432939 -2.210583
3.697860 -17.467320 -2.212023
3.592200 -17.497411 -2.213001
3.487635 -17.533527 -2.214821
3.377346 -17.540887 -2.213091
3.267624 -17.550377 -2.211717
3.159398 -17.567439 -2.211382
3.049085 -17.572309 -2.209599
2.941868 -17.594647 -2.210096
2.831077 -17.595112 -2.207931
2.719615 -17.589852 -2.205135
2.608909 -17.587834 -2.202834
2.493178 -17.548856 -2.195995
2.381394 -17.533935 -2.192258
2.269512 -17.515407 -2.188159
2.155717 -17.478088 -2.181803
2.046010 -17.470304 -2.179223
1.956681 -17.643981 -2.199348
1.857932 -17.746875 -2.210712
1.783726 -18.110474 -2.254599
1.690855 -18.319200 -2.279249
1.524345 -17.701302 -2.201166
1.518944 -19.001861 -2.361688
1.159908 -18.879831 -2.343470
1.019477 -18.442216 -2.288331
0.878536 -17.883019 -2.218235
0.766301 -17.830129 -2.211049
0.659334 -17.901034 -2.219298
0.547851 -17.851568 -2.212707
0.436643 -17.786864 -2.204314
0.329046 -17.873346 -2.214740
0.219057 -17.849450 -2.211570
0.109709 -17.879593 -2.215180
0.000000 -17.910308 -2.218944
-0.109808 -17.895618 -2.217165
-0.219857 -17.914670 -2.219651
-0.329927 -17.921199 -2.220669
-0.439378 -17.898289 -2.218123
-0.550079 -17.924147 -2.221704
-0.661620 -17.963103 -2.226994
-0.771806 -17.958211 -2.226932
-0.882414 -17.961951 -2.228026
-0.991366 -17.933702 -2.225234
-1.100571 -17.914006 -2.223586
-1.210754 -17.911131 -2.224110
-1.322015 -17.922121 -2.226440
-1.434234 -17.942135 -2.229977
-1.545683 -17.949090 -2.231979
-1.657376 -17.956480 -2.234120
-1.767816 -17.948936 -2.234489
-1.877273 -17.931616 -2.233725
-1.989479 -17.939732 -2.236214
-2.102487 -17.952544 -2.239377
-2.213926 -17.950035 -2.240717
-2.326010 -17.951447 -2.242632
-2.440685 -17.970488 -2.246840
-2.551727 -17.960967 -2.247565
-2.666462 -17.975825 -2.251429
-2.776821 -17.959851 -2.251520
-2.884148 -17.924942 -2.249320
-2.998807 -17.935188 -2.252872
-3.109394 -17.919878 -2.253303
-3.226587 -17.941038 -2.258411
-3.343631 -17.958611 -2.263163
-3.455467 -17.946623 -2.264282
-3.567315 -17.934106 -2.265421
-3.668841 -17.870725 -2.260216
-3.771155 -17.813537 -2.255868
-3.877668 -17.777605 -2.254288
-3.983439 -17.739058 -2.252457
-4.099728 -17.746831 -2.256596
-4.215291 -17.749754 -2.260214
-4.331470 -17.753674 -2.264055
-4.448877 -17.760911 -2.268416
-4.559906 -17.741584 -2.269478
-4.667414 -17.708464 -2.268863
-4.771084 -17.661357 -2.266535
-4.877912 -17.626510 -2.265862
-4.996696 -17.634085 -2.270734
-5.090685 -17.554410 -2.264454
-5.202128 -17.535747 -2.266121
-5.331236 -17.574729 -2.275344
-5.452741 -17.586095 -2.281104
-5.590378 -17.646478 -2.293342
-5.709258 -17.644938 -2.297652
-5.798888 -17.553483 -2.290333
-5.941282 -17.620773 -2.303826
-6.116660 -17.779822 -2.329484
-6.318874 -18.007655 -2.364370
-6.532324 -18.256623 -2.402277
-6.707562 -18.389854 -2.425178
-6.889075 -18.533446 -2.449643
-7.066983 -18.660662 -2.472142
-7.212300 -18.697184 -2.482796
-7.376324 -18.778432 -2.499549
-7.542389 -18.860300 -2.516559
-7.696579 -18.908516 -2.529246
-7.865617 -18.989278 -2.546457
-8.018147 -19.026470 -2.557994
-8.163845 -19.044810 -2.567146
-8.308401 -19.058249 -2.575781
-8.439089 -19.038279 -2.580032
-8.579821 -19.039564 -2.587292
-8.730455 -19.060728 -2.597398
-8.881637 -19.080684 -2.607495
-9.037992 -19.109229 -2.618925
-9.181174 -19.107732 -2.626391
-9.317707 -19.090914 -2.631889
-9.456157 -19.076727 -2.637882
-9.583685 -19.039511 -2.640818
-9.730030 -19.038465 -2.648904
-9.885855 -19.053939 -2.659447
-10.039826 -19.063641 -2.669349
-10.211606 -19.104572 -2.683803
-10.368431 -19.114916 -2.694143
-10.520944 -19.115294 -2.703245
-10.675456 -19.117391 -2.712754
-10.825424 -19.109545 -2.721015
-10.988231 -19.122392 -2.732393
-11.155066 -19.139900 -2.744624
-11.312792 -19.139607 -2.754484
-11.473348 -19.142125 -2.764926
-11.608899 -19.101498 -2.769294
-11.736924 -19.047823 -2.771901
-11.860056 -18.985817 -2.773416
-11.968356 -18.900100 -2.771570
-12.088758 -18.833565 -2.772639
-12.204853 -18.760207 -2.772812
-12.329294 -18.699465 -2.774963
-12.459821 -18.647440 -2.778536
-12.558027 -18.547038 -2.775005
-12.653178 -18.442794 -2.770973
-12.721746 -18.300999 -2.761345
-12.777607 -18.142808 -2.749254
-12.864349 -18.029951 -2.744062
-12.965777 -17.938282 -2.742167
-13.093185 -17.882406 -2.745855
-13.257741 -17.875995 -2.757310
-13.417616 -17.861455 -2.767715
-13.600249 -17.875116 -2.782710
-13.801015 -17.909867 -2.801251
-13.932740 -17.853156 -2.805699
-14.065527 -17.797070 -2.810396
-14.135820 -17.662148 -2.802734
-14.098468 -17.395603 -2.774112
-14.107338 -17.189841 -2.755051
-13.966785 -16.807214 -2.707411
-13.655299 -16.228760 -2.627678
-13.352984 -15.673243 -2.550950
-12.829840 -14.873350 -2.433528
-12.822101 -14.681269 -2.414928
-12.941412 -14.635646 -2.420439
-13.077644 -14.608098 -2.429109
-13.244592 -14.613156 -2.443417
-13.358063 -14.557829 -2.447826
-13.443478 -14.471653 -2.447159
-13.529810 -14.386542 -2.446760
-13.559780 -14.242283 -2.436330
-13.559176 -14.067784 -2.420666
-13.582599 -13.920125 -2.409554
-13.531494 -13.698577 -2.385532
-13.480088 -13.480088 -2.361843
-13.447480 -13.283459 -2.341804
-13.394305 -13.069529 -2.318535
-13.419771 -12.934591 -2.309161
-13.460388 -12.815355 -2.302576
-13.558732 -12.751297 -2.305972
-13.696503 -12.723400 -2.316081
-13.832517 -12.692526 -2.325868
-13.946082 -12.639992 -2.331878
-14.029897 -12.560019 -2.332962
-14.134490 -12.498270 -2.337558
-14.248256 -12.443923 -2.343701
-14.361752 -12.388532 -2.349822
-14.523593 -12.373528 -2.363835
-14.666719 -12.340957 -2.374760
-14.774988 -12.278007 -2.380048
-14.928785 -12.251737 -2.392667
-14.998619 -12.155804 -2.391860
-15.040966 -12.037969 -2.386789
-15.107387 -11.939794 -2.385659
-15.115752 -11.796448 -2.375504
-15.114061 -11.646618 -2.363963
-15.091244 -11.482145 -2.349331
-15.065661 -11.317402 -2.334494
-15.059553 -11.168925 -2.322884
-15.069975 -11.033973 -2.314005
-15.083394 -10.902266 -2.305750
-15.145196 -10.806080 -2.305018
-15.181382 -10.691935 -2.300497
-15.229815 -10.586845 -2.297949
-15.311017 -10.504538 -2.300433
-15.375079 -10.410322 -2.300417
-15.430768 -10.310510 -2.299240
-15.441565 -10.181232 -2.291498
-15.438060 -10.043559 -2.281789
-15.437577 -9.908965 -2.272688
-15.456966 -9.788016 -2.266658
-15.525072 -9.698198 -2.267876
-15.565906 -9.591430 -2.265201
-15.617786 -9.491680 -2.264233
-15.710216 -9.416341 -2.269214
-15.746643 -9.307323 -2.266184
-15.796068 -9.206223 -2.265125
-15.894847 -9.133599 -2.271210
-15.922566 -9.020022 -2.267220
-15.984077 -8.925764 -2.268137
-16.035794 -8.826006 -2.267748
-16.051728 -8.706877 -2.262404
-16.125342 -8.619175 -2.265282
-16.138893 -8.499514 -2.259817
-16.188554 -8.399192 -2.259512
-16.277942 -8.319204 -2.264821
-16.369179 -8.239552 -2.270438
-16.524480 -8.191031 -2.284964
-16.613027 -8.108324 -2.290285
-16.729869 -8.038622 -2.299550
-16.853816 -7.971261 -2.309820
-16.894028 -7.863797 -2.308675
-17.075391 -7.821104 -2.326857
-17.233407 -7.765911 -2.341852
-17.253253 -7.647841 -2.338128
-17.543594 -7.648091 -2.371071
-17.115287 -7.336726 -2.307056
-17.095179 -7.204262 -2.298343
-8.501540 -3.521453 -1.140054
-18.095159 -7.236402 -2.414465
-18.027661 -7.081415 -2.399615
-17.708024 -6.830739 -2.351446
-17.772559 -6.730649 -2.354487
-17.785396 -6.611017 -2.350770
-17.684850 -6.450416 -2.332205
-17.757286 -6.353659 -2.336572
-17.922515 -6.288998 -2.353191
-17.906791 -6.160341 -2.346120
-17.952296 -6.053063 -2.347171
-18.040686 -5.959838 -2.353902
-18.157872 -5.875224 -2.364444
-18.256204 -5.783539 -2.372583
-18.280666 -5.668100 -2.371197
-18.323078 -5.558245 -2.372230
-18.309511 -5.431672 -2.366114
-18.290875 -5.304255 -2.359455
-18.294347 -5.183784 -2.355756
-18.246456 -5.049475 -2.345555
-18.292603 -4.941610 -2.347545
-18.337801 -4.833288 -2.349495
-18.371267 -4.721746 -2.350027
-18.463381 -4.624836 -2.358135
-18.482366 -4.509253 -2.356982
-18.522911 -4.398903 -2.358666
-18.624830 -4.302556 -2.368238
-18.675569 -4.193739 -2.371373
-18.730784 -4.085577 -2.375156
-18.782511 -3.976288 -2.378576
-18.788329 -3.857224 -2.376271
-18.809752 -3.741492 -2.376032
-18.797696 -3.619334 -2.371659
-18.782834 -3.497090 -2.367033
-18.810109 -3.382884 -2.367809
-18.780498 -3.258725 -2.361520
-18.818366 -3.146477 -2.363810
-18.889070 -3.039277 -2.370304
-18.842469 -2.913285 -2.362168
-18.948282 -2.810712 -2.373227
-18.987391 -2.697551 -2.376007
-18.887039 -2.565167 -2.361436
-19.153416 -2.481752 -2.392792
-19.369065 -2.388946 -2.417855
-19.604640 -2.295970 -2.445458
-19.795560 -2.195286 -2.467546
-19.860252 -2.079183 -2.473973
-19.918505 -1.961802 -2.479684
-19.903131 -1.837051 -2.476320
-19.943671 -1.717446 -2.480006
-20.075232 -1.604746 -2.495094
-20.113211 -1.483640 -2.498636
-20.187011 -1.364598 -2.506716
-20.256057 -1.244458 -2.514295
-20.268823 -1.120451 -2.514979
-20.361522 -1.000297 -2.525672
-20.304632 -0.872650 -2.517903
-20.303601 -0.747826 -2.517159
-20.292450 -0.622760 -2.515256
-20.207660 -0.496070 -2.504321
-20.146709 -0.370898 -2.496439
-20.231004 -0.248284 -2.506648
-20.218955 -0.124064 -2.505014
-20.126494 0.000000 -2.649703
-20.144732 0.123608 -2.652154
-20.058679 0.246169 -2.640974
-19.999324 0.368185 -2.633407
-19.918148 0.488963 -2.623064
-19.909775 0.611016 -2.622406
-19.904442 0.733124 -2.622246
-19.908681 0.855633 -2.623447
-19.885147 0.976895 -2.621086
-19.829900 1.096187 -2.614642
-19.793686 1.216052 -2.610801
-19.713170 1.332568 -2.601211
-19.629831 1.447983 -2.591338
-19.559421 1.563514 -2.583261
-19.467493 1.676440 -2.572430
-19.380674 1.788829 -2.562359
-19.275357 1.898457 -2.549927
-19.168868 2.006802 -2.537421
-19.019435 2.109216 -2.519306
-18.900360 2.213489 -2.505286
-18.816836 2.320835 -2.496055
-18.730855 2.427000 -2.486578
-18.697228 2.539388 -2.484136
-18.645054 2.648915 -2.479317
-18.601064 2.759207 -2.475672
-18.560168 2.869638 -2.472526
-18.499534 2.976600 -2.466835
-18.451085 3.085066 -2.462853
-18.406217 3.193782 -2.459433
-18.388385 3.307040 -2.459715
-18.376953 3.421520 -2.460948
-18.361318 3.535313 -2.461713
-18.343373 3.648724 -2.462263
-18.296894 3.756333 -2.459071
-18.251872 3.863951 -2.456161
-18.221802 3.974557 -2.455350
-18.204033 4.087852 -2.456289
-18.188121 4.201671 -2.457574
-18.191754 4.320259 -2.461601
-18.189256 4.437741 -2.464901
-18.174214 4.552404 -2.466602
-18.158685 4.667109 -2.468334
-18.138573 4.780777 -2.469541
-18.105202 4.890985 -2.469037
-18.096351 5.007935 -2.471974
-18.095586 5.127464 -2.476121
-18.095715 5.247660 -2.480498
-18.099008 5.369225 -2.485419
-18.102955 5.491471 -2.490541
-18.096709 5.611062 -2.494372
-18.090982 5.731196 -2.498382
-18.089374 5.853061 -2.503073
-18.089925 5.976104 -2.508176
-18.095897 6.101481 -2.514148
-18.093034 6.224413 -2.519009
-18.073423 6.341952 -2.521649
-18.023949 6.449072 -2.520220
-17.979575 6.557915 -2.519594
-17.941256 6.668952 -2.519911
-17.873949 6.769046 -2.516244
-17.860020 6.889370 -2.520187
-17.838201 7.006994 -2.523128
-17.812282 7.123278 -2.525596
-17.782088 7.238075 -2.527565
-17.677859 7.322409 -2.519088
-17.610202 7.421303 -2.515889
-17.543248 7.520178 -2.512869
-17.480541 7.620603 -2.510537
-17.451481 7.735709 -2.513133
-17.372047 7.828386 -2.508564
-17.325187 7.935519 -2.508782
-17.290669 8.048425 -2.510887
-17.215046 8.142110 -2.507114
-17.151277 8.241107 -2.505144
-17.043948 8.318643 -2.496876
-16.976245 8.414967 -2.494475
-16.927157 8.520415 -2.494897
-16.881134 8.627478 -2.495869
-16.862056 8.748629 -2.500938
-16.817168 8.856726 -2.502294
-16.744801 8.950283 -2.499650
-16.681518 9.048492 -2.498445
-16.600038 9.136562 -2.494591
-16.545839 9.239460 -2.494919
-16.527432 9.362675 -2.500759
-16.517607 9.491453 -2.508037
-16.550645 9.646003 -2.521993
-16.598277 9.810696 -2.538377
-16.589525 9.943379 -2.546321
-16.619638 10.100553 -2.560408
-16.526221 10.183159 -2.555594
-16.282048 10.171066 -2.527439
-16.095352 10.192269 -2.508119
-16.024118 10.285450 -2.506806
-15.960937 10.383729 -2.506842
-15.969173 10.529105 -2.518236
-16.018545 10.703249 -2.536330
-16.014161 10.843039 -2.546123
-15.912679 10.917324 -2.540591
-15.815417 10.993920 -2.535785
-15.716204 11.068599 -2.530719
-15.663112 11.175612 -2.533164
-15.551015 11.240262 -2.526142
-15.443113 11.307178 -2.519837
-15.365599 11.395905 -2.518551
-15.277443 11.476494 -2.515597
-15.191838 11.558682 -2.513132
-15.047321 11.595190 -2.500948
-14.893933 11.623340 -2.487261
-14.803216 11.699399 -2.484053
-14.724386 11.784595 -2.482912
-14.659153 11.880680 -2.484159
-14.552192 11.942675 -2.478404
-14.431467 11.992541 -2.470330
-14.308634 12.039655 -2.461903
-14.197880 12.096034 -2.455571
-14.123403 12.182931 -2.455573
-14.057478 12.277304 -2.457162
-13.991531 12.371861 -2.458858
-13.919749 12.461411 -2.459634
-13.828278 12.533220 -2.457014
-13.739173 12.606875 -2.454880
-13.644139 12.674756 -2.451750
-13.562098 12.754463 -2.451025
-13.479837 12.833872 -2.450344
-13.386706 12.902722 -2.447760
-13.316975 12.994074 -2.449543
-13.229149 13.067791 -2.448091
-13.147708 13.147708 -2.447903
-13.071939 13.233349 -2.448868
-12.975209 13.297641 -2.445986
-12.893298 13.376929 -2.445972
-12.802347 13.446725 -2.444325
-12.722071 13.527655 -2.444800
-12.648615 13.615998 -2.446693
-12.565978 13.694602 -2.446916
-12.498753 13.790249 -2.450257
-12.422414 13.876188 -2.451937
-12.337217 13.952353 -2.451973
-12.251821 14.028300 -2.452062
-12.162780 14.100043 -2.451511
-12.078793 14.177644 -2.452071
-11.992528 14.252626 -2.452266
-11.914816 14.337935 -2.454319
-11.826388 14.410495 -2.454272
-11.736087 14.480744 -2.453925
-11.649859 14.556038 -2.454525
-11.561421 14.628632 -2.454757
-11.478233 14.707997 -2.456210
-11.397907 14.791303 -2.458396
-11.319617 14.877630 -2.461154
-11.232728 14.952944 -2.462165
-11.154809 15.040518 -2.465268
-11.061410 15.107449 -2.465067
-10.960921 15.164544 -2.463363
-10.869337 15.233854 -2.463741
-10.775114 15.299486 -2.463617
-10.692584 15.381927 -2.466281
-10.605364 15.457977 -2.467994
-10.517175 15.532891 -2.469605
-10.418722 15.592720 -2.468906
-10.316073 15.646074 -2.467285
-10.203215 15.683469 -2.463263
-10.094563 15.726728 -2.460283
-9.981355 15.762282 -2.456217
-9.884011 15.822524 -2.456108
-9.797962 15.901086 -2.458924
-9.704427 15.967844 -2.459993
-9.621117 16.051864 -2.463796
-9.524475 16.114033 -2.464321
-9.423789 16.169368 -2.463894
-9.318146 16.216007 -2.462242
-9.210982 16.259658 -2.460242
-9.104983 16.305020 -2.458606
-9.009858 16.369831 -2.459996
-8.916596 16.438359 -2.462026
-8.822262 16.505292 -2.463897
-8.725182 16.567393 -2.465129
-8.621068 16.616196 -2.464473
-8.512981 16.657100 -2.462746
-8.398909 16.685766 -2.459318
-8.292314 16.728806 -2.458116
-8.187639 16.775535 -2.457554
-8.087617 16.831835 -2.458486
-7.990202 16.893862 -2.460338
-7.888052 16.946137 -2.460856
-7.780462 16.986660 -2.459761
-7.663809 17.006833 -2.455827
-7.560660 17.056575 -2.456264
-7.461178 17.114843 -2.458016
-7.353735 17.154964 -2.457252
-7.260969 17.229741 -2.461534
-7.156739 17.277897 -2.462094
-7.036490 17.286845 -2.457170
-6.902254 17.259595 -2.447231
-6.757872 17.203995 -2.433422
-6.615373 17.149709 -2.419956
-6.512649 17.196920 -2.420934
-6.445578 17.340321 -2.435508
-6.371088 17.467357 -2.447814
-6.283654 17.561636 -2.455576
-6.181115 17.615066 -2.457698
-6.065618 17.631453 -2.454745
-5.946471 17.636164 -2.450275
-5.826769 17.637881 -2.445500
-5.708095 17.641344 -2.441078
-5.592534 17.653282 -2.437936
-5.480268 17.674874 -2.436228
-5.366429 17.690747 -2.433831
-5.254203 17.711284 -2.432175
-5.144076 17.738520 -2.431535
-5.029845 17.751073 -2.428979
-4.920510 17.780437 -2.428820
-4.811744 17.811872 -2.429036
-4.703498 17.845369 -2.429622
-4.596191 17.882759 -2.430827
-4.485886 17.908661 -2.430561
-4.374969 17.931966 -2.430035
-4.262172 17.947161 -2.428504
-4.146418 17.948943 -2.425257
-4.032341 17.956829 -2.422934
-3.918107 17.963003 -2.420477
-3.803332 17.965530 -2.417627
-3.693199 17.989374 -2.417741
-3.577119 17.983392 -2.413942
-3.460946 17.975079 -2.409930
-3.345739 17.969931 -2.406442
-3.229443 17.956917 -2.402000
-3.118152 17.970352 -2.401193
-3.006044 17.978468 -2.399768
-2.894448 17.988961 -2.398752
-2.783189 18.001037 -2.398040
-2.670423 18.002531 -2.396011
-2.557918 18.004545 -2.394145
-2.445167 18.003488 -2.391965
-2.331256 17.991935 -2.388484
-2.218103 17.983903 -2.385566
-2.106369 17.985689 -2.384044
-1.996069 17.999160 -2.384161
-1.887050 18.025007 -2.386006
-1.777286 18.045092 -2.387176
-1.667819 18.069614 -2.389022
-1.556644 18.076369 -2.388607
-1.444596 18.071772 -2.386783
-1.332995 18.070978 -2.385553
-1.221670 18.072626 -2.384736
-1.111033 18.084289 -2.385331
-1.000896 18.106090 -2.387351
-0.890712 18.130859 -2.389852
-0.780278 18.155332 -2.392401
-0.669006 18.163627 -2.392908
-0.557665 18.171361 -2.393431
-0.446088 18.171615 -2.393059
-0.334394 18.163864 -2.391723
-0.222919 18.164139 -2.391534
-0.111488 18.169539 -2.392110
0.000000 18.173186 -2.392545
0.111558 18.180824 -2.393596
0.223087 18.177891 -2.393345
0.334574 18.173650 -2.393012
0.445943 18.165711 -2.392282
0.557190 18.155856 -2.391389
0.668564 18.151619 -2.391326
0.780082 18.150782 -2.391802
0.891516 18.147231 -2.392010
1.002609 18.137073 -2.391436
1.113401 18.122841 -2.390416
1.223522 18.100018 -2.388351
1.333973 18.084226 -2.387302
1.444849 18.074931 -2.387200
1.556843 18.078677 -2.388912
1.670238 18.095822 -2.392487
1.784164 18.114919 -2.396414
1.898540 18.134760 -2.400534
2.013010 18.151917 -2.404395
2.126863 18.160684 -2.407240
2.240270 18.163632 -2.409407
2.354148 18.168603 -2.411938
2.467921 18.171025 -2.414224
2.582017 18.174175 -2.416702
2.694724 18.166353 -2.417815
2.805795 18.147245 -2.417518
2.914264 18.112117 -2.415175
3.019545 18.059218 -2.410546
3.124098 18.004622 -2.405772
3.228790 17.953287 -2.401515
3.333812 17.905873 -2.397864
3.444071 17.887436 -2.398180
3.552607 17.860162 -2.397400
3.660989 17.832477 -2.396654
3.769189 17.804252 -2.395924
3.877030 17.774680 -2.395101
3.984839 17.745292 -2.394391
4.094559 17.724456 -2.394924
4.207771 17.718093 -2.397508
4.322428 17.716612 -2.400851
4.439932 17.725204 -2.405662
4.557793 17.733360 -2.410519
4.672480 17.727685 -2.413600
4.785682 17.715396 -2.415879
4.894658 17.687020 -2.416060
5.000075 17.646008 -2.414603
5.106760 17.609844 -2.413897
5.216128 17.582939 -2.414550
5.324769 17.553411 -2.414937
5.434226 17.526379 -2.415760
5.538729 17.483443 -2.414481
5.640481 17.432379 -2.412163
5.744513 17.388890 -2.410977
5.845859 17.337767 -2.408817
5.948859 17.292058 -2.407493
6.056137 17.258903 -2.408005
6.175570 17.259562 -2.413338
6.286371 17.235091 -2.415265
6.402408 17.224183 -2.419196
6.528425 17.238578 -2.426798
6.656285 17.255771 -2.434923
6.768696 17.231550 -2.437320
6.878798 17.200943 -2.438915
6.992813 17.179542 -2.441918
7.115230 17.177686 -2.447814
7.231205 17.159115 -2.451444
7.336426 17.114587 -2.451468
7.438364 17.062512 -2.450500
7.548894 17.030032 -2.452442
7.669279 17.018970 -2.457579
7.760415 16.942891 -2.453423
7.800186 16.757371 -2.433444
7.832186 16.559766 -2.411682
8.038818 16.730276 -2.443652
8.264144 16.932286 -2.480517
8.342272 16.829592 -2.472925
8.258536 16.406893 -2.418215
8.373613 16.384403 -2.422428
8.553300 16.485581 -2.445100
8.708433 16.535590 -2.460397
8.807068 16.476865 -2.459653
8.885781 16.381549 -2.453517
8.980142 16.315842 -2.451883
9.066920 16.236857 -2.448328
9.153129 16.157532 -2.444789
9.234703 16.070795 -2.440193
9.321139 15.993242 -2.437056
9.415744 15.930075 -2.436189
9.512281 15.870282 -2.435925
9.617421 15.824683 -2.437938
9.711694 15.761083 -2.437274
9.806550 15.698523 -2.436859
9.896498 15.628278 -2.435335
9.988243 15.561088 -2.434370
10.082871 15.498486 -2.434209
10.179560 15.439028 -2.434635
10.282089 15.388233 -2.436528
10.393603 15.350385 -2.440588
10.502537 15.308101 -2.444065
10.624187 15.283534 -2.450504
10.734767 15.242198 -2.454392
10.834500 15.185029 -2.455845
10.942598 15.139194 -2.459245
11.040147 15.078407 -2.460328
11.136702 15.016104 -2.461266
11.236672 14.958194 -2.463029
11.344522 14.910363 -2.466569
11.443851 14.850926 -2.468306
11.527696 14.771377 -2.466795
11.622827 14.706329 -2.467795
11.699712 14.618327 -2.465028
11.787340 14.543984 -2.464642
11.891076 14.489318 -2.467696
11.978153 14.414153 -2.467366
12.054644 14.326448 -2.464968
12.135850 14.244615 -2.463654
12.219113 14.165348 -2.462865
12.315149 14.100811 -2.464736
12.412105 14.037044 -2.466856
12.509702 13.973691 -2.469166
12.611122 13.914229 -2.472286
12.707848 13.849215 -2.474542
12.804359 13.783653 -2.476819
12.898768 13.715541 -2.478756
12.971574 13.624470 -2.476635
13.052606 13.542213 -2.476194
13.138767 13.465264 -2.476819
13.237526 13.400979 -2.479888
13.353210 13.353210 -2.486164
13.462534 13.298330 -2.491279
13.578064 13.248832 -2.497567
13.678938 13.184388 -2.501195
13.740634 13.082171 -2.497751
13.799026 12.977281 -2.493844
13.879251 12.893164 -2.493998
13.992895 12.839687 -2.500215
14.100883 12.780296 -2.505451
14.200265 12.712538 -2.509202
14.321817 12.663912 -2.516902
14.403121 12.579176 -2.517579
14.442453 12.458145 -2.511044
14.509079 12.361163 -2.509394
14.554842 12.246821 -2.504265
14.596843 12.129968 -2.498638
14.632854 12.008873 -2.492142
14.627276 11.854845 -2.478757
14.640689 11.717609 -2.468799
14.668340 11.592803 -2.461420
14.715124 11.483795 -2.457400
14.782699 11.391277 -2.456966
14.855289 11.302619 -2.457458
14.922757 11.210051 -2.457194
14.982468 11.111756 -2.455753
15.041233 11.012928 -2.454263
15.091877 10.908397 -2.451559
15.149426 10.809098 -2.450087
15.208439 10.710991 -2.448956
15.276790 10.619499 -2.449423
15.345385 10.528117 -2.450018
15.420949 10.441381 -2.451807
15.498960 10.356074 -2.454061
15.568126 10.264679 -2.454993
15.625415 10.165448 -2.454145
15.670835 10.058687 -2.451539
15.692231 9.936996 -2.445301
15.723068 9.821882 -2.440669
15.753959 9.707305 -2.436172
15.796026 9.600005 -2.433523
15.850642 9.500509 -2.432910
15.897701 9.396608 -2.431238
15.944711 9.292855 -2.429661
15.976163 9.180325 -2.425824
15.983038 9.054279 -2.418387
15.993177 8.930845 -2.411584
16.015444 8.814805 -2.406740
16.042144 8.701679 -2.402684
16.089591 8.600066 -2.401841
16.130688 8.495192 -2.400150
16.166676 8.387841 -2.397801
16.196032 8.277342 -2.394577
16.223244 8.166095 -2.391147
16.250665 8.055303 -2.387858
16.287648 7.949516 -2.386080
16.330725 7.846836 -2.385293
16.381564 7.747903 -2.385729
16.430937 7.648238 -2.386040
16.472643 7.545025 -2.385329
16.502611 7.436591 -2.383016
16.520991 7.323252 -2.379136
16.539571 7.210389 -2.375396
16.568012 7.102129 -2.373177
16.607476 6.998733 -2.372634
16.658108 6.900014 -2.373774
16.705332 6.799789 -2.374513
16.745568 6.696690 -2.374347
16.776368 6.589897 -2.372936
16.784470 6.474485 -2.368418
16.792505 6.359493 -2.364001
16.796039 6.243263 -2.359062
16.820067 6.134994 -2.357105
16.846642 6.027825 -2.355601
16.874328 5.921190 -2.354348
16.883090 5.808165 -2.350554
16.878193 5.690902 -2.344966
16.859611 5.569663 -2.337592
16.843940 5.450084 -2.330739
16.845305 5.336568 -2.326353
16.854290 5.225838 -2.323122
16.871811 5.118008 -2.321165
16.884515 5.008935 -2.318640
16.898631 4.900512 -2.316406
16.903807 4.789769 -2.313043
16.921885 4.682916 -2.311542
16.971118 4.584621 -2.314380
17.029956 4.488580 -2.318605
17.100868 4.395231 -2.324544
17.166282 4.299930 -2.329805
17.216883 4.200506 -2.333131
17.247447 4.096001 -2.333823
17.251645 3.985334 -2.331038
17.246978 3.872938 -2.327153
17.242661 3.760986 -2.323412
17.240308 3.649801 -2.320034
17.269060 3.545320 -2.320932
17.301518 3.441486 -2.322413
17.352081 3.340993 -2.326404
17.391931 3.238124 -2.329039
17.414733 3.131934 -2.329475
17.418711 3.022433 -2.327483
17.418699 2.912449 -2.325050
17.420269 2.802945 -2.322920
17.439291 2.696336 -2.323206
17.464807 2.590659 -2.324444
17.489584 2.484757 -2.325669
17.517365 2.379143 -2.327378
17.542353 2.273003 -2.328801
17.584452 2.168835 -2.332579
17.653123 2.067421 -2.339961
17.702585 1.963180 -2.344877
17.560913 1.838464 -2.324573
17.430715 1.716776 -2.305901
17.681125 1.631961 -2.337659
17.906459 1.542012 -2.366155
17.691253 1.414179 -2.336527
17.503825 1.291160 -2.310683
17.550637 1.186385 -2.315858
17.603474 1.081493 -2.321911
17.656479 0.976042 -2.328068
17.683756 0.868747 -2.330918
17.698028 0.760624 -2.332140
17.728557 0.652981 -2.335592
17.732947 0.544211 -2.335686
17.709181 0.434736 -2.332160
17.694650 0.325756 -2.329940
17.680767 0.216987 -2.327892
17.681163 0.108492 -2.327813
17.701535 -0.000000 -2.330451
17.713941 -0.108693 -2.332128
17.727750 -0.217563 -2.334078
17.727435 -0.326359 -2.334257
17.704408 -0.434619 -2.331532
17.688716 -0.542853 -2.329860
17.681454 -0.651246 -2.329386
17.688283 -0.760205 -2.330856
17.712699 -0.870169 -2.334733
17.737148 -0.980501 -2.338705
17.770635 -1.091763 -2.343960
17.793300 -1.202789 -2.347878
17.806918 -1.313517 -2.350695
17.821496 -1.424590 -2.353729
17.833900 -1.535764 -2.356567
17.857145 -1.648208 -2.360931
17.904173 -1.763407 -2.368534
17.939283 -1.878076 -2.374659
17.973214 -1.993192 -2.380724
17.981675 -2.105899 -2.383512
17.959934 -2.215147 -2.382387
17.952885 -2.326197 -2.383300
17.941386 -2.436732 -2.383714
17.934576 -2.547977 -2.384841
17.935688 -2.660508 -2.387115
17.908407 -2.768867 -2.385700
17.880321 -2.876968 -2.384266
17.844391 -2.983626 -2.381871
17.793278 -3.087427 -2.377532
17.760418 -3.194104 -2.375716
17.723348 -3.299829 -2.373421
17.701783 -3.408325 -2.373289
17.696107 -3.519974 -2.375379
17.688978 -3.631528 -2.377368
17.674088 -3.741633 -2.378408
17.650989 -3.850051 -2.378434
17.616448 -3.955906 -2.377006
17.571018 -4.059113 -2.374192
17.519355 -4.160574 -2.370616
17.457670 -4.259252 -2.365761
17.391735 -4.356403 -2.360404
17.331870 -4.454602 -2.355944
17.266895 -4.551030 -2.350864
17.208132 -4.648649 -2.346703
17.153044 -4.746887 -2.343118
17.095278 -4.844022 -2.339243
17.033464 -4.939613 -2.334888
16.985552 -5.038908 -2.332515
16.930020 -5.135665 -2.329173
16.900971 -5.240312 -2.329556
16.889297 -5.350504 -2.332428
16.854471 -5.453491 -2.332196
16.818510 -5.556085 -2.331894
16.761697 -5.651623 -2.328781
16.680963 -5.738628 -2.322413
16.635534 -5.837398 -2.321031
16.592415 -5.936861 -2.320054
16.565945 -6.042304 -2.321493
16.575140 -6.161152 -2.328036
16.584074 -6.280558 -2.334659
16.581570 -6.396217 -2.339788
16.585861 -6.515064 -2.345990
16.573113 -6.627724 -2.349895
16.558878 -6.740176 -2.353696
16.552132 -6.856117 -2.358673
16.555748 -6.976934 -2.365244
16.554441 -7.096311 -2.371233
16.545061 -7.212783 -2.376185
16.518884 -7.322317 -2.378833
16.487221 -7.429656 -2.380793
16.453253 -7.536144 -2.382521
16.422185 -7.644164 -2.384769
16.400438 -7.756830 -2.388478
16.361851 -7.861791 -2.389839
16.325429 -7.967956 -2.391615
16.296422 -8.077985 -2.394582
16.256948 -8.183060 -2.396115
16.209658 -8.284306 -2.396592
16.154552 -8.381551 -2.396003
16.087483 -8.472439 -2.393721
16.018302 -8.561961 -2.391199
15.949331 -8.651335 -2.388783
15.883514 -8.742192 -2.386914
15.812824 -8.830133 -2.384389
15.742126 -8.917804 -2.381934
15.678834 -9.009472 -2.380678
15.606384 -9.095672 -2.378106
15.538387 -9.184229 -2.376288
15.478279 -9.277324 -2.375756
15.409407 -9.365038 -2.373961
15.344384 -9.454932 -2.372836
15.275282 -9.542160 -2.371160
15.205137 -9.628547 -2.369398
15.129262 -9.711066 -2.366815
15.052571 -9.792772 -2.364173
14.956884 -9.861663 -2.358604
14.875555 -9.939528 -2.355352
14.784229 -10.010263 -2.350573
14.701853 -10.086604 -2.347272
14.618075 -10.161601 -2.343807
14.520133 -10.226231 -2.338120
14.425081 -10.292278 -2.332940
14.325456 -10.354429 -2.327059
14.229984 -10.418946 -2.321892
14.151975 -10.495820 -2.319628
14.073501 -10.572085 -2.317355
14.004758 -10.655494 -2.316758
13.940896 -10.742599 -2.317054
13.868770 -10.823294 -2.316061
13.817737 -10.920547 -2.318685
13.747899 -11.003069 -2.318252
13.676239 -11.084066 -2.317593
13.608736 -11.168401 -2.317723
13.543966 -11.255028 -2.318410
13.487741 -11.348934 -2.320662
13.438683 -11.449228 -2.324265
13.377168 -11.539225 -2.325828
13.311742 -11.626004 -2.326812
13.236942 -11.704624 -2.326247
13.176658 -11.796172 -2.328329
13.137770 -11.907381 -2.334324
13.114478 -12.033664 -2.343261
13.095227 -12.164844 -2.353114
13.074143 -12.295566 -2.362838
13.038770 -12.413941 -2.370167
13.000084 -12.530078 -2.377066
12.948139 -12.634181 -2.381698
12.893777 -12.736509 -2.386029
12.842517 -12.842517 -2.391081
12.795239 -12.953231 -2.397031
12.769249 -13.086564 -2.407160
12.728270 -13.205710 -2.414665
12.700317 -13.339560 -2.424844
12.648223 -13.449131 -2.430608
12.579189 -13.541262 -2.433264
12.514038 -13.637998 -2.436803
12.438520 -13.723792 -2.438449
12.334424 -13.777901 -2.434570
12.222730 -13.822878 -2.429219
12.106787 -13.862236 -2.423035
11.981297 -13.889653 -2.414931
11.876113 -13.939745 -2.410925
11.796946 -14.020184 -2.412273
11.717487 -14.100475 -2.413672
11.659028 -14.206567 -2.419540
11.607439 -14.322010 -2.427026
11.551772 -14.433482 -2.433859
11.503512 -14.555361 -2.442462
11.429510 -14.645564 -2.445784
11.363903 -14.747175 -2.451062
11.285142 -14.832319 -2.453658
11.175750 -14.877096 -2.449675
11.086642 -14.948606 -2.450203
10.966647 -14.978023 -2.443949
10.853616 -15.016087 -2.439247
10.754033 -15.072250 -2.437605
10.655267 -15.129317 -2.436215
10.567886 -15.202542 -2.437519
10.464690 -15.252937 -2.435257
10.366173 -15.309875 -2.434147
10.271131 -15.371834 -2.433932
10.185640 -15.448250 -2.436090
10.106955 -15.535505 -2.440024
10.026827 -15.621199 -2.443774
9.928225 -15.678380 -2.443143
9.818366 -15.717438 -2.439795
9.702006 -15.745360 -2.434843
9.587764 -15.775884 -2.430420
9.482241 -15.820163 -2.428232
9.383429 -15.875403 -2.427828
9.291402 -15.942220 -2.429281
9.198578 -16.007927 -2.430647
9.097315 -16.059008 -2.429882
8.992240 -16.103122 -2.428162
8.878786 -16.131689 -2.424209
8.762306 -16.153915 -2.419424
8.649920 -16.182863 -2.415765
8.536066 -16.208300 -2.411698
8.430031 -16.247992 -2.409862
8.327804 -16.294769 -2.409175
8.220831 -16.331986 -2.407174
8.114647 -16.370384 -2.405450
7.992111 -16.374922 -2.398866
7.852182 -16.341852 -2.386918
7.737618 -16.359819 -2.382563
7.635439 -16.403440 -2.382047
7.535422 -16.451676 -2.382293
7.438945 -16.507834 -2.383770
7.339137 -16.556827 -2.384297
7.242793 -16.613900 -2.386071
7.139781 -16.655847 -2.385759
7.037943 -16.700517 -2.385927
6.935390 -16.743512 -2.385944
6.832092 -16.784692 -2.385794
6.726486 -16.820076 -2.384912
6.621929 -16.857914 -2.384471
6.515064 -16.889669 -2.383263
6.414800 -16.938546 -2.384561
6.309890 -16.975283 -2.384237
6.202312 -17.004631 -2.382969
6.099846 -17.047928 -2.383746
5.993803 -17.081263 -2.383220
5.889530 -17.119603 -2.383482
5.790301 -17.172992 -2.385924
5.679702 -17.192703 -2.383776
5.571528 -17.219271 -2.382675
5.461476 -17.239588 -2.380804
5.351452 -17.259419 -2.378963
5.247135 -17.297486 -2.379727
5.145566 -17.345081 -2.381887
5.044435 -17.394927 -2.384437
