3.653420 14.585270 -4.258267
3.747581 14.581005 -4.263655
3.840696 14.571843 -4.267787
3.929225 14.545006 -4.266908
4.008215 14.483828 -4.256096
4.084675 14.415428 -4.243281
4.157799 14.337505 -4.227774
4.239823 14.291932 -4.221928
4.325684 14.259870 -4.220218
4.413397 14.234019 -4.220503
4.501118 14.208141 -4.220939
4.585336 14.171364 -4.218293
4.658859 14.102568 -4.206245
4.728298 14.023282 -4.191171
4.801541 13.957050 -4.180103
4.879229 13.904925 -4.173380
4.965914 13.878801 -4.174606
5.055878 13.861498 -4.178654
5.148206 13.850044 -4.184645
5.245812 13.851784 -4.194817
5.334446 13.829032 -4.197761
5.428718 13.820272 -4.205134
5.529730 13.827499 -4.217577
5.565555 13.673136 -4.180832
5.538790 13.371822 -4.099014
5.571579 13.220943 -4.063167
5.523117 12.884456 -3.970096
5.597315 12.839416 -3.966725
5.896098 13.301383 -4.120549
5.960110 13.226138 -4.108492
6.014240 13.130563 -4.090189
6.128526 13.166094 -4.112894
6.245414 13.204818 -4.136884
6.330056 13.174024 -4.139327
6.392133 13.096749 -4.127293
6.421725 12.955104 -4.094996
6.443296 12.800630 -4.058588
6.456500 12.633245 -4.018002
6.482681 12.494682 -3.986509
6.526115 12.391800 -3.966385
6.589152 12.327437 -3.958651
6.662987 12.283675 -3.957652
6.751653 12.266944 -3.965534
6.839965 12.248872 -3.973185
6.933611 12.239536 -3.983882
7.018147 12.213408 -3.989319
7.088996 12.163323 -3.987093
7.160532 12.114584 -3.985444
7.215564 12.038441 -3.974885
7.275542 11.971311 -3.967385
7.334107 11.902503 -3.959421
7.387784 11.826514 -3.949149
7.461462 11.782937 -3.949811
7.554782 11.769900 -3.960905
7.652806 11.763208 -3.974381
7.763589 11.774799 -3.994317
7.874562 11.785115 -4.014132
7.970277 11.771358 -4.026028
8.081290 11.778982 -4.045519
8.184184 11.773443 -4.060788
8.280039 11.756752 -4.072478
8.384276 11.750932 -4.088205
8.479245 11.731120 -4.099336
8.594143 11.737705 -4.119987
8.721114 11.759061 -4.146188
8.847652 11.777944 -4.171910
8.980446 11.803205 -4.200297
9.101997 11.811853 -4.223170
9.210837 11.802597 -4.239988
9.326152 11.800353 -4.259660
9.428460 11.780488 -4.273292
9.523173 11.750308 -4.283460
9.607855 11.707205 -4.289158
9.659496 11.623950 -4.280290
9.710798 11.540884 -4.271564
9.775602 11.474242 -4.269019
9.867257 11.438893 -4.278313
9.981167 11.428408 -4.297216
10.091196 11.412292 -4.314358
10.187140 11.379324 -4.325444
10.286989 11.349943 -4.338187
10.387187 11.320121 -4.351068
10.528786 11.334041 -4.381168
10.608531 11.280282 -4.385467
10.597010 11.130388 -4.352389
10.321834 10.709009 -4.212301
10.247055 10.501693 -4.155409
8.544055 8.649554 -3.443217
8.936843 8.936843 -3.579343
10.355020 10.228719 -4.122129
10.473651 10.219693 -4.144313
10.687227 10.300839 -4.203734
10.876623 10.355406 -4.253158
10.976542 10.322879 -4.267381
10.964113 10.185140 -4.238172
10.971893 10.067657 -4.217221
10.971967 9.944411 -4.193717
10.974336 9.824582 -4.171502
11.035148 9.757711 -4.171781
11.127724 9.718560 -4.184155
11.252288 9.706291 -4.208520
11.372600 9.689006 -4.231202
11.464441 9.646477 -4.243270
11.535486 9.585982 -4.247715
11.599966 9.519846 -4.249869
11.644894 9.437739 -4.245033
11.689854 9.355921 -4.240415
11.738489 9.277259 -4.237328
11.803185 9.211296 -4.240199
11.883773 9.157417 -4.248884
11.953681 9.094936 -4.253846
12.030911 9.037681 -4.261514
12.087913 8.965007 -4.262140
12.127729 8.879712 -4.256888
12.160888 8.789881 -4.249515
12.192262 8.699164 -4.241746
12.226020 8.610534 -4.235030
12.272417 8.531041 -4.232889
12.307049 8.443584 -4.226885
12.338297 8.354146 -4.219932
12.356256 8.256186 -4.208668
12.346804 8.140734 -4.188356
12.324243 8.017799 -4.163935
12.282193 7.883609 -4.133307
12.264144 7.766184 -4.111118
12.268754 7.664042 -4.096823
12.287541 7.571360 -4.087506
12.324800 7.490374 -4.084534
12.352884 7.404034 -4.078708
12.376031 7.315065 -4.071454
12.397371 7.225403 -4.063813
12.418633 7.136074 -4.056353
12.444920 7.049960 -4.050733
12.481283 6.969748 -4.048573
12.531182 6.897088 -4.050954
12.595405 6.832077 -4.058087
12.659668 6.766733 -4.065338
12.722820 6.700446 -4.072339
12.786226 6.633945 -4.079528
12.838707 6.561506 -4.083349
12.890823 6.488695 -4.087185
12.939234 6.413858 -4.089979
12.986974 6.338555 -4.092698
13.040157 6.265733 -4.097265
13.093203 6.192624 -4.101916
13.142642 6.117610 -4.105568
13.188765 6.040898 -4.108319
13.223705 5.959014 -4.107736
13.242784 5.870122 -4.102396
13.256163 5.778995 -4.095479
13.266157 5.686739 -4.087709
13.277775 5.595528 -4.080633
13.294236 5.506653 -4.075231
13.307395 5.416682 -4.069000
13.316529 5.325389 -4.061724
13.323797 5.233698 -4.054070
13.314563 5.135994 -4.041595
13.318283 5.043770 -4.033254
13.318134 4.950489 -4.023934
13.331927 4.862721 -4.019011
13.359830 4.780223 -4.018504
13.375260 4.693370 -4.014408
13.408475 4.612819 -4.015806
13.439124 4.531335 -4.016582
13.451488 4.443771 -4.012053
13.465713 4.357013 -4.008246
13.470033 4.267287 -4.001663
13.502968 4.186728 -4.003740
13.549213 4.110109 -4.009899
13.610215 4.037586 -4.020544
13.670579 3.964394 -4.031114
13.715485 3.886343 -4.037248
13.745918 3.804008 -4.039260
13.773259 3.720743 -4.040509
13.780661 3.632164 -4.036066
13.792538 3.544930 -4.033098
13.803036 3.457481 -4.029889
13.819173 3.371546 -4.028485
13.838686 3.286473 -4.028218
13.862248 3.202343 -4.029281
13.883970 3.117750 -4.029959
13.903685 3.032685 -4.030204
13.923430 2.947613 -4.030609
13.949621 2.863842 -4.033028
13.988957 2.782577 -4.039388
14.024697 2.700334 -4.044848
14.068868 2.619418 -4.052875
14.088604 2.533750 -4.054005
14.092767 2.445327 -4.050809
14.079570 2.354138 -4.042788
14.062752 2.262716 -4.033896
14.058864 2.173679 -4.028879
14.073277 2.087573 -4.029263
14.099631 2.003144 -4.033213
14.118320 1.917498 -4.035118
14.114913 1.828902 -4.030861
14.072018 1.735618 -4.015494
14.005493 1.640234 -3.993564
13.932734 1.545111 -3.970039
13.855307 1.450521 -3.945366
13.758808 1.355124 -3.915446
13.649840 1.259875 -3.882164
13.488475 1.161558 -3.834170
13.257509 1.059760 -3.766598
12.932441 0.953954 -3.672510
12.523323 0.846550 -3.554788
11.971895 0.735510 -3.396919
11.042292 0.610413 -3.132030
9.641964 0.473679 -2.733966
8.725201 0.374991 -2.473320
9.331856 0.343713 -2.644640
11.011891 0.337947 -3.120114
12.240133 0.300478 -3.467537
12.940522 0.238233 -3.665469
13.363260 0.164000 -3.784855
13.604309 0.083476 -3.852910
13.868324 -0.000000 -3.927608
14.004015 -0.085929 -3.966112
13.520685 -0.165932 -3.829443
12.909916 -0.237670 -3.656800
5.008330 -0.122948 -1.418822
10.505517 -0.516103 -2.978825
15.391566 -0.850838 -4.365656
15.235031 -0.935985 -4.322804
14.739722 -0.996373 -4.183921
14.572503 -1.074932 -4.138249
14.629866 -1.169462 -4.156499
14.649044 -1.261500 -4.164068
14.690643 -1.355941 -4.178179
14.791765 -1.456862 -4.209403
14.728553 -1.541942 -4.194028
14.591708 -1.618190 -4.157809
14.565052 -1.705766 -4.153118
14.597430 -1.800421 -4.165422
14.620036 -1.894352 -4.175111
14.628704 -1.986816 -4.180989
14.632901 -2.078906 -4.185756
14.644285 -2.172274 -4.192746
14.658253 -2.266352 -4.200648
14.656890 -2.358314 -4.204325
14.640526 -2.447932 -4.203860
14.622252 -2.537201 -4.203004
14.594824 -2.624791 -4.199671
14.564606 -2.711717 -4.195684
14.548670 -2.801221 -4.195966
14.509147 -2.886049 -4.189596
14.450203 -2.966611 -4.177753
14.379439 -3.044151 -4.162616
14.293025 -3.117608 -4.143060
14.201493 -3.189052 -4.122123
14.115809 -3.260919 -4.102983
14.034022 -3.332862 -4.085078
13.949619 -3.403372 -4.066511
13.862582 -3.472396 -4.047274
13.779790 -3.541654 -4.029371
13.698067 -3.610395 -4.011876
13.640048 -3.684757 -4.001431
13.601300 -3.763987 -3.996764
13.577491 -3.847242 -3.996629
13.544164 -3.927735 -3.993838
13.477379 -3.998179 -3.981304
13.417462 -4.070142 -3.970907
13.373195 -4.146490 -3.965261
13.403936 -4.246347 -3.982027
13.481309 -4.362059 -4.012889
13.563058 -4.480629 -4.045330
13.664873 -4.607452 -4.084053
13.526577 -4.653448 -4.051177
12.921142 -4.534020 -3.878110
12.440158 -4.451160 -3.741876
13.117009 -5.433243 -4.020903
13.693041 -5.770530 -4.208256
13.415875 -5.750918 -4.133842
13.217382 -5.762088 -4.083498
13.101751 -5.807607 -4.058707
12.955306 -5.838065 -4.024362
12.277651 -5.623578 -3.824506
11.812094 -5.498269 -3.689924
2.446453 -1.157086 -0.766439
8.268288 -11.006699 -3.898724
8.629547 -11.635598 -4.102656
8.639114 -11.799125 -4.141546
8.614982 -11.918914 -4.164960
8.756655 -12.272838 -4.269779
8.765996 -12.446757 -4.311492
8.488489 -12.211203 -4.211776
7.985959 -11.640032 -3.997796
8.167498 -12.062636 -4.125651
0.870894 -3.667164 -1.067452
1.334111 -5.775077 -1.678617
2.412726 -13.415663 -3.860366
2.813406 -16.214060 -4.660552
2.631647 -15.739285 -4.519356
2.432374 -15.117172 -4.336356
2.317187 -14.987043 -4.294870
2.221880 -14.978698 -4.288490
2.030416 -14.291591 -4.088124
2.027423 -14.927686 -4.266440
1.548478 -15.721957 -4.474114
1.479506 -16.029382 -4.558931
1.340791 -15.569800 -4.425798
1.258240 -15.740473 -4.472034
1.189605 -16.127076 -4.579712
1.103669 -16.326985 -4.634471
0.978076 -15.920145 -4.517199
0.837006 -15.141341 -4.294683
0.808784 -16.463173 -4.668111
-11.141977 -16.240124 -5.577709
-11.528929 -16.585060 -5.720366
-6.486812 -9.210566 -3.190492
-4.209821 -3.722489 -1.591501
-8.250596 -7.205778 -3.102321
-12.040429 -9.758305 -4.389221
-12.508239 -10.010912 -4.537279
-12.406787 -9.805434 -4.478569
-12.493859 -9.750304 -4.488319
-12.493633 -9.627365 -4.466932
-12.430449 -9.457684 -4.423509
-12.449134 -9.351853 -4.409655
-12.401284 -9.197419 -4.372633
-12.326479 -9.025233 -4.326650
-12.240991 -8.847779 -4.277506
-12.113029 -8.642632 -4.214180
-12.046595 -8.484169 -4.172878
-12.106666 -8.415821 -4.175720
-12.060545 -8.274463 -4.142222
-11.987130 -8.116374 -4.099826
-12.047690 -8.050009 -4.103568
-12.109715 -7.984412 -4.107929
-12.242143 -7.964388 -4.136197
-12.321081 -7.908570 -4.146393
-12.346539 -7.818359 -4.138738
-12.364882 -7.724091 -4.128922
-12.292330 -7.574312 -4.089099
-12.205011 -7.417572 -4.044835
-12.074177 -7.236983 -3.986684
-11.983395 -7.082990 -3.942285
-12.007865 -6.998392 -3.936134
-12.093494 -6.949241 -3.950151
-12.146488 -6.880900 -3.953595
-12.215897 -6.821552 -3.962489
-12.285285 -6.761748 -3.971463
-12.310882 -6.677744 -3.966417
-12.435689 -6.647014 -3.993413
-12.662704 -6.668786 -4.053097
-12.865455 -6.675051 -4.104806
-13.034255 -6.661445 -4.145543
-13.237246 -6.663070 -4.197023
-12.924023 -6.406318 -4.085171
-13.246641 -6.465291 -4.174529
-18.048082 -5.839700 -5.372249
-18.690462 -5.921111 -5.552542
-18.490203 -5.733069 -5.482496
-18.582723 -5.637008 -5.499569
-18.516566 -5.493097 -5.469912
-18.314998 -5.311251 -5.400639
-18.200066 -5.157069 -5.357316
-17.974462 -4.974204 -5.281824
-17.680152 -4.776161 -5.186631
-17.286415 -4.556174 -5.062828
-17.268277 -4.438258 -5.049445
-14.297397 -3.581312 -4.174221
-12.893557 -3.145718 -3.758654
-3.406930 -0.809093 -0.991702
-15.310118 2.367139 -4.515516
-16.346424 2.630162 -4.825829
-16.286578 2.723156 -4.813004
-13.796824 5.914217 -4.375310
-14.470296 6.308293 -4.601072
-14.800273 6.560510 -4.718705
-14.741389 6.642930 -4.712838
-14.680515 6.724170 -4.706479
-14.311581 6.661725 -4.601219
-14.208266 6.720010 -4.581174
-14.050985 6.751431 -4.543733
-13.883686 6.776214 -4.502994
-13.755153 6.818301 -4.474791
-13.688363 6.890143 -4.466732
-13.630210 6.966021 -4.461620
-13.557804 7.034266 -4.451964
-13.460746 7.089073 -4.434293
-13.321655 7.120573 -4.402784
-13.202040 7.161132 -4.377691
-13.091886 7.205696 -4.355744
-12.923179 7.216509 -4.314265
-12.811193 7.257451 -4.291666
-12.715960 7.306926 -4.274702
-12.617515 7.353707 -4.256696
-12.548622 7.417078 -4.248728
-12.486807 7.484304 -4.243268
-12.385102 7.527022 -4.224322
-12.303299 7.581070 -4.212207
-12.270913 7.665391 -4.217143
-12.221203 7.738991 -4.216300
-12.179647 7.817787 -4.218433
-12.108564 7.877485 -4.210476
-12.005870 7.915943 -4.191577
-11.885560 7.941677 -4.166508
-11.768934 7.968635 -4.142687
-11.704515 8.030199 -4.137278
-11.636593 8.089055 -4.130736
-11.595391 8.166396 -4.133820
-11.547275 8.238967 -4.134611
-11.510210 8.319571 -4.139540
-11.475221 8.401957 -4.145420
-11.438004 8.483002 -4.150701
-11.396282 8.560945 -4.154545
-11.343318 8.630543 -4.154464
-11.304605 8.711121 -4.159783
-11.278389 8.801741 -4.169931
-11.249274 8.890619 -4.179258
-11.203010 8.966278 -4.182431
-11.155146 9.040817 -4.185194
-11.103505 9.112411 -4.186718
-11.027933 9.164206 -4.179347
-10.949278 9.213006 -4.170883
-10.855006 9.248037 -4.156511
-10.760594 9.282152 -4.142090
-10.701078 9.345943 -4.141177
-10.651280 9.418279 -4.144192
-10.601591 9.490888 -4.147439
-10.557196 9.568484 -4.152962
-10.460881 9.598760 -4.138165
-10.372435 9.635499 -4.126488
-10.293578 9.680586 -4.118670
-10.292506 9.799281 -4.142222
-10.359661 9.985117 -4.193827
-10.381524 10.129800 -4.227760
-10.454803 10.327284 -4.283328
-10.490206 10.490206 -4.324122
-10.478047 10.607428 -4.345858
-10.443326 10.702841 -4.358613
-10.356357 10.744827 -4.349751
-10.250083 10.765999 -4.332779
-10.146930 10.789452 -4.317079
-10.037220 10.804880 -4.298529
-9.961767 10.856492 -4.294663
-9.880411 10.901354 -4.288346
-9.792728 10.938754 -4.279341
-9.714586 10.986378 -4.274571
-9.600827 10.992920 -4.254116
-9.512912 11.028109 -4.245065
-9.468797 11.114126 -4.255731
-9.426017 11.202433 -4.267317
-9.407144 11.320277 -4.290138
-9.358324 11.403151 -4.299703
-9.264472 11.431105 -4.288728
-9.166395 11.453048 -4.275778
-8.956706 11.332894 -4.210324
-8.763039 11.228796 -4.151596
-8.751909 11.357536 -4.179261
-8.765809 11.521102 -4.219577
-8.759100 11.660065 -4.250707
-8.737550 11.781222 -4.275250
-8.439866 11.526997 -4.164124
-7.801075 10.792865 -3.881554
-0.626244 0.877708 -0.314272
-8.165906 12.221141 -4.284147
-8.165982 12.385097 -4.323975
-8.170152 12.558426 -4.366905
-8.052120 12.544723 -4.344877
-8.007080 12.644561 -4.362358
-7.878799 12.612540 -4.334550
-7.812867 12.679480 -4.340998
-7.744275 12.742574 -4.346249
-7.650047 12.763332 -4.337237
-7.533103 12.744920 -4.315191
-7.439863 12.765342 -4.306568
-7.328606 12.753688 -4.287385
-7.243400 12.786389 -4.283356
-7.169208 12.838472 -4.285987
-7.071235 12.847586 -4.274464
-6.967419 12.844917 -4.259272
-6.857367 12.829231 -4.240038
-6.751878 12.820480 -4.223374
-6.665605 12.847248 -4.218639
-6.573969 12.863092 -4.210517
-6.465672 12.845085 -4.191557
-6.363258 12.837153 -4.176149
-6.278405 12.863732 -4.172185
-6.217041 12.938819 -4.184087
-6.161914 13.028273 -4.200708
-6.089020 13.081222 -4.205655
-6.029682 13.164277 -4.220383
-5.955830 13.216639 -4.225374
-5.890736 13.289287 -4.236964
-5.825654 13.363193 -4.249051
-5.738471 13.386840 -4.245293
-5.658430 13.427036 -4.246950
-5.577580 13.465470 -4.248202
-5.484625 13.474313 -4.240294
-5.411679 13.532303 -4.248014
-5.328027 13.563938 -4.247602
-5.248022 13.604984 -4.250291
-5.177309 13.670900 -4.260879
-5.105133 13.734167 -4.270754
-5.037970 13.812402 -4.285389
-4.961091 13.865321 -4.292282
-4.888339 13.930888 -4.303213
-4.817410 14.003179 -4.316331
-4.740457 14.059342 -4.324596
-4.660175 14.106550 -4.330239
-4.582157 14.161538 -4.338407
-4.498766 14.200717 -4.341871
-4.428056 14.281297 -4.358119
-4.359503 14.371355 -4.377356
-4.284132 14.441292 -4.390568
-4.213344 14.529042 -4.409303
-4.132011 14.582482 -4.417744
-4.056041 14.656649 -4.432589
-3.978978 14.729178 -4.447057
-3.896528 14.783675 -4.456208
-3.811913 14.831306 -4.463431
-3.717675 14.841790 -4.459637
-3.616874 14.824712 -4.447753
-3.514602 14.799293 -4.433573
-3.415776 14.786151 -4.423274
-3.322822 14.797197 -4.420396
-3.240813 14.857871 -4.432497
-3.161759 14.934978 -4.449629
-3.080913 15.006962 -4.465359
-2.995993 15.061872 -4.476143
-2.905943 15.092566 -4.479882
-2.811311 15.099524 -4.476742
-2.711788 15.078560 -4.465509
-2.609047 15.036308 -4.448172
-2.505786 14.986542 -4.428818
-2.403511 14.937792 -4.409970
-2.304695 14.906248 -4.396399
-2.204074 14.858662 -4.378293
-2.103869 14.808610 -4.359659
-2.005049 14.762954 -4.342514
-1.903886 14.693618 -4.318601
-1.804214 14.628181 -4.296034
-1.696505 14.485978 -4.251134
-1.601103 14.437629 -4.233983
-1.534709 14.659461 -4.296195
-1.469223 14.917273 -4.369027
-1.382795 14.981594 -4.385297
-1.283128 14.900192 -4.359084
-1.140893 14.272468 -4.173315
-0.996096 13.503738 -3.946674
-0.279932 15.205540 -4.432762
-0.188180 15.333546 -4.469658
-0.093397 15.221082 -4.436624
0.000000 15.272355 -4.451486
0.094826 15.454024 -4.504522
0.189077 15.406601 -4.490953
0.284849 15.472665 -4.510635
0.379621 15.464047 -4.508716
0.471888 15.376332 -4.483902
0.563526 15.299836 -4.462519
0.655629 15.255032 -4.450541
0.748437 15.234780 -4.445889
0.841570 15.223899 -4.444137
0.935493 15.227033 -4.446644
1.027811 15.204789 -4.441906
1.120039 15.183999 -4.437756
1.211904 15.160807 -4.433068
1.303252 15.133880 -4.427449
1.397655 15.142590 -4.432423
1.492158 15.150136 -4.437228
1.587619 15.164861 -4.444311
1.684994 15.194101 -4.455826
1.780059 15.199422 -4.460506
1.873805 15.192408 -4.461737
1.966579 15.177465 -4.460809
2.058053 15.153216 -4.457309
2.150025 15.133489 -4.455304
2.242012 15.114419 -4.453655
2.336357 15.111028 -4.456797
2.428329 15.092035 -4.455506
2.520612 15.075211 -4.455021
2.609286 15.037688 -4.448580
2.697573 14.999523 -4.442103
2.789380 14.981731 -4.441819
2.882930 14.973040 -4.444403
2.980511 14.984042 -4.453013
3.077738 14.991496 -4.460757
3.174825 14.996695 -4.468016
3.269708 14.990341 -4.472017
3.360642 14.965619 -4.470709
3.452604 14.945575 -4.470966
3.543459 14.920806 -4.469976
3.638088 14.911664 -4.473841
3.735997 14.914938 -4.481616
3.833360 14.914751 -4.488544
3.927346 14.900598 -4.491452
4.013139 14.855636 -4.485237
4.094878 14.796989 -4.475032
4.172465 14.725249 -4.460995
4.247485 14.646770 -4.445032
4.325206 14.579747 -4.432662
4.404347 14.519187 -4.422383
4.482832 14.457958 -4.412029
4.563748 14.405837 -4.404586
4.639745 14.339518 -4.392931
4.712860 14.266030 -4.379195
4.786564 14.196088 -4.366658
4.862477 14.134179 -4.356711
4.943394 14.087785 -4.351678
5.026021 14.046787 -4.348458
5.112259 14.016077 -4.348580
5.199228 13.987308 -4.349471
5.278596 13.938353 -4.344238
5.355804 13.884399 -4.337582
5.431072 13.826266 -4.329751
5.505070 13.765833 -4.321323
5.578801 13.705680 -4.313104
5.650056 13.640441 -4.303403
5.718558 13.569716 -4.292079
5.785404 13.496326 -4.280014
5.846215 13.410355 -4.264047
5.910663 13.334241 -4.251297
5.966931 13.241273 -4.233250
6.029956 13.164875 -4.220574
6.099990 13.104790 -4.213232
6.168744 13.042713 -4.205364
6.241207 12.989114 -4.200351
6.297832 12.903536 -4.185095
6.338525 12.787257 -4.159917
6.375421 12.665786 -4.133049
6.412650 12.547445 -4.107195
6.458144 12.447390 -4.087338
6.518345 12.377047 -4.077297
6.585226 12.320092 -4.071769
6.654876 12.268723 -4.068210
6.735471 12.237543 -4.071499
6.816489 12.206831 -4.075120
6.899653 12.179590 -4.080083
6.979528 12.146201 -4.083167
7.047306 12.091792 -4.079336
7.115353 12.038147 -4.075891
7.172378 11.966389 -4.066420
7.226186 11.890101 -4.055487
7.286629 11.825451 -4.048610
7.341461 11.752359 -4.038932
7.405959 11.695288 -4.034860
7.490598 11.669905 -4.041883
7.585122 11.659170 -4.054209
7.704100 11.684574 -4.079404
7.829843 11.718188 -4.107836
7.943445 11.731730 -4.129591
8.072685 11.766440 -4.159167
8.193875 11.787383 -4.184263
8.315293 11.806808 -4.209191
8.438770 11.827307 -4.234879
8.550100 11.829149 -4.254244
8.671448 11.843287 -4.278384
8.791849 11.854437 -4.301819
8.903230 11.851929 -4.320652
9.019125 11.854041 -4.341515
9.123222 11.839397 -4.356572
9.224078 11.819563 -4.370019
9.331999 11.807751 -4.386740
9.440223 11.795185 -4.403508
9.539020 11.769861 -4.415823
9.628741 11.732655 -4.423947
9.694984 11.666655 -4.421408
9.760527 11.599984 -4.418756
9.827167 11.534768 -4.416799
9.897649 11.474126 -4.416751
9.984852 11.432627 -4.424277
10.083391 11.403465 -4.436852
10.178664 11.369855 -4.447991
10.267239 11.328152 -4.456239
10.338231 11.266768 -4.456962
10.404750 11.200519 -4.455926
10.446247 11.107722 -4.444425
10.480710 11.008234 -4.430266
10.506719 10.900828 -4.412904
10.531177 10.792876 -4.395279
10.593635 10.724443 -4.393799
10.658633 10.658633 -4.393549
10.740054 10.609056 -4.400195
10.847550 10.584525 -4.417544
10.941258 10.545687 -4.429271
11.027380 10.498938 -4.437972
11.105154 10.443832 -4.443398
11.144077 10.352318 -4.433472
11.184343 10.262599 -4.424356
11.215856 10.165459 -4.412064
11.268717 10.088121 -4.408425
11.345796 10.032398 -4.414414
11.427242 9.980148 -4.422193
11.523518 9.940255 -4.435763
11.609562 9.890889 -4.445439
11.685206 9.832235 -4.451219
11.762364 9.774518 -4.457680
11.831831 9.710133 -4.461342
11.872468 9.622179 -4.454319
11.920554 9.540561 -4.450312
11.946684 9.441801 -4.438355
11.975767 9.345981 -4.427772
12.000768 9.247572 -4.415952
12.027997 9.151479 -4.405226
12.049640 9.051751 -4.392728
12.082096 8.960693 -4.384433
12.105458 8.863405 -4.373093
12.158208 8.787943 -4.372587
12.219901 8.718885 -4.375451
12.287283 8.653681 -4.380483
12.354275 8.587944 -4.385497
12.402610 8.509146 -4.384038
12.439572 8.422718 -4.378753
12.459845 8.325403 -4.367825
12.469830 8.221850 -4.353558
12.473918 8.115174 -4.337519
12.474471 8.007027 -4.320546
12.486663 7.907092 -4.307883
12.516517 7.818815 -4.301550
12.560559 7.739589 -4.300284
12.610983 7.664301 -4.301366
12.660857 7.588625 -4.302414
12.704639 7.509295 -4.301553
12.743646 7.427218 -4.299248
12.761793 7.333263 -4.290110
12.774810 7.236841 -4.279477
12.782544 7.137976 -4.267316
12.783847 7.036153 -4.253257
12.793234 6.939385 -4.242134
12.792831 6.837911 -4.228008
12.796592 6.739298 -4.215505
12.797543 6.639816 -4.202318
12.791395 6.537327 -4.187048
12.790383 6.438138 -4.173707
12.803335 6.346494 -4.165148
12.821305 6.257697 -4.158424
12.857604 6.178017 -4.157824
12.901886 6.102137 -4.159957
12.965344 6.035081 -4.168400
13.022820 5.964890 -4.175032
13.073453 5.891306 -4.179597
13.112712 5.812465 -4.180668
13.130381 5.724160 -4.175024
13.142268 5.633632 -4.167734
13.146997 5.540416 -4.158374
13.160948 5.451443 -4.152129
13.171784 5.361483 -4.145090
13.193263 5.276094 -4.141583
13.218553 5.192358 -4.139443
13.234928 5.105275 -4.134683
13.268091 5.024761 -4.135334
13.300253 4.943843 -4.135825
13.325735 4.860462 -4.134397
13.355721 4.778754 -4.134525
13.374759 4.693194 -4.131426
13.390589 4.606665 -4.127507
13.402637 4.519032 -4.122596
13.411996 4.430725 -4.117035
13.411960 4.339621 -4.108772
13.414316 4.249635 -4.101428
13.414474 4.159289 -4.093597
13.435023 4.075470 -4.092159
13.462193 3.993674 -4.092894
13.503292 3.915882 -4.098007
13.549338 3.839265 -4.104754
13.607487 3.765699 -4.115293
13.666363 3.691866 -4.126170
13.731130 3.619109 -4.138942
13.796006 3.545822 -4.151861
13.863301 3.472576 -4.165622
13.928715 3.398272 -4.178933
13.984502 3.321102 -4.189478
14.039012 3.243178 -4.199767
14.081837 3.162182 -4.206695
14.113439 3.078437 -4.210413
14.139482 2.993351 -4.212624
14.161985 2.907441 -4.213934
14.184747 2.821522 -4.215476
14.222615 2.738442 -4.221656
14.256423 2.654338 -4.226778
14.288059 2.569621 -4.231403
14.322290 2.485153 -4.236945
14.351198 2.399555 -4.241061
14.383384 2.314306 -4.246296
14.420573 2.229604 -4.253156
14.464965 2.145675 -4.262286
14.529848 2.064265 -4.277592
14.597398 1.982564 -4.293816
14.665551 1.900249 -4.310352
14.729870 1.816756 -4.325898
14.779536 1.730885 -4.337284
14.823071 1.643848 -4.347018
14.856090 1.555294 -4.353820
14.890494 1.466586 -4.361183
14.919498 1.377064 -4.367121
14.956481 1.287975 -4.375551
14.986591 1.197977 -4.382127
15.004883 1.106827 -4.385407
15.019659 1.015296 -4.387822
15.025302 0.923100 -4.387733
15.028018 0.830742 -4.386955
15.043665 0.739048 -4.390117
15.054074 0.646992 -4.391913
15.075215 0.555253 -4.397004
15.098670 0.463367 -4.402933
15.127354 0.371356 -4.410550
15.148171 0.278876 -4.416037
15.160059 0.186051 -4.419087
15.174765 0.093112 -4.423124
15.185484 -0.000000 -4.426165
15.183176 -0.093164 -4.425576
15.178894 -0.186282 -4.424577
15.155530 -0.279011 -4.418183
15.130521 -0.371433 -4.411473
15.104300 -0.463540 -4.404575
15.099622 -0.556152 -4.404123
15.121674 -0.649898 -4.411635
15.155800 -0.744557 -4.422840
15.198412 -0.840161 -4.436696
15.247515 -0.936752 -4.452625
15.275305 -1.032578 -4.462506
15.291076 -1.127937 -4.469051
15.296284 -1.222733 -4.472682
15.270300 -1.315000 -4.467360
15.237880 -1.406451 -4.460316
15.198503 -1.496922 -4.451394
15.146396 -1.585686 -4.438899
15.095800 -1.674093 -4.426998
15.043206 -1.761764 -4.414662
14.981081 -1.847740 -4.399675
14.929173 -1.934407 -4.387833
14.869192 -2.019478 -4.373764
14.816651 -2.105012 -4.362026
14.756926 -2.188983 -4.348315
14.693233 -2.271761 -4.333574
14.634066 -2.354641 -4.320303
14.567965 -2.435799 -4.305120
14.518139 -2.519136 -4.294882
14.463953 -2.601254 -4.283494
14.414110 -2.683697 -4.273529
14.368690 -2.766567 -4.265015
14.323055 -2.849033 -4.256579
14.276902 -2.931033 -4.248128
14.239865 -3.014603 -4.242532
14.193905 -3.095988 -4.234419
14.151267 -3.177773 -4.227436
14.113043 -3.260280 -4.221914
14.074843 -3.342556 -4.216543
14.034126 -3.423989 -4.210559
14.008836 -3.509031 -4.209352
13.973168 -3.591356 -4.205177
13.936133 -3.673142 -4.200736
13.896908 -3.754146 -4.195776
13.852606 -3.833532 -4.189424
13.819148 -3.915717 -4.186493
13.786461 -3.998000 -4.183944
13.765054 -4.083520 -4.184972
13.758723 -4.173663 -4.190754
13.748053 -4.262719 -4.195392
13.740166 -4.352864 -4.201057
13.714474 -4.437503 -4.201448
13.671375 -4.516412 -4.196655
13.615309 -4.590740 -4.188013
13.542954 -4.659082 -4.174472
13.475949 -4.728701 -4.162683
13.559653 -4.851722 -4.197656
13.783884 -5.027568 -4.276541
14.022720 -5.212391 -4.360482
14.301943 -5.416292 -4.457560
14.028302 -5.411313 -4.382539
13.296251 -5.222878 -4.163774
13.260509 -5.302986 -4.162693
3.449707 -1.631590 -1.112290
13.640128 -6.554016 -4.410872
13.601294 -6.638387 -4.411404
13.523151 -6.703300 -4.399316
13.673935 -6.882880 -4.462024
13.540212 -6.920026 -4.432161
13.380021 -6.942027 -4.393586
13.233268 -6.969272 -4.359356
12.987146 -6.941774 -4.292229
12.722999 -6.901287 -4.218845
12.618191 -6.944977 -4.198143
12.624625 -7.049792 -4.214596
12.668803 -7.176788 -4.243966
12.615073 -7.248954 -4.240787
12.579048 -7.331288 -4.243719
12.081997 -7.141271 -4.090738
12.326453 -7.388192 -4.188776
1.159708 -1.174027 -0.480998
5.502794 -5.639538 -2.296639
4.135593 -4.290720 -1.736981
1.657715 -1.741152 -0.700727
1.186133 -1.261241 -0.504648
2.276400 -2.450502 -0.974888
4.865246 -5.302223 -2.097479
6.361879 -7.019251 -2.761215
6.028161 -6.733627 -2.634256
4.428138 -5.007851 -1.948451
4.728275 -5.413862 -2.095094
8.483908 -9.835207 -3.785879
9.464304 -11.108852 -4.253711
9.255984 -11.000356 -4.190340
8.584659 -10.330523 -3.915043
8.197977 -9.989264 -3.766579
8.273131 -10.873564 -3.982418
8.862969 -11.798334 -4.301114
8.845655 -11.926985 -4.328146
8.731235 -11.924943 -4.307882
8.754207 -12.111534 -4.355801
8.707685 -12.204204 -4.369831
8.666124 -12.304951 -4.386782
8.671403 -12.474336 -4.428116
8.679237 -12.650528 -4.471672
8.453805 -12.485485 -4.394914
8.148654 -12.195322 -4.275096
7.706400 -11.688062 -4.080622
7.218237 -11.095227 -3.858111
6.576086 -10.971537 -3.728349
8.116299 -13.731603 -4.649263
7.871553 -13.506037 -4.556452
7.332003 -12.759601 -4.289373
6.546721 -11.556579 -3.871378
6.891637 -12.341405 -4.120046
6.778405 -12.315548 -4.097452
-9.788610 -8.236390 -3.728753
-11.511456 -9.566014 -4.362591
-3.541684 -2.906585 -1.335437
-2.267301 -1.555543 -0.801439
-12.572026 -8.512401 -4.425377
-12.512795 -8.360782 -4.386387
-12.520042 -8.254957 -4.371088
-12.723291 -8.277409 -4.424233
-12.653202 -8.121750 -4.382449
-12.566576 -7.957696 -4.335453
-12.552686 -7.841409 -4.313980
-12.515939 -7.712096 -4.285008
-12.438990 -7.559772 -4.242702
-12.397725 -7.430910 -4.212996
-12.405006 -7.332191 -4.200103
-12.414096 -7.235151 -4.188070
-12.454509 -7.156690 -4.186810
-12.483934 -7.072061 -4.182036
-12.549244 -7.007698 -4.189431
-12.644716 -6.959576 -4.206968
-12.785051 -6.934946 -4.239421
-12.973824 -6.934653 -4.287826
-13.139099 -6.919678 -4.328335
-13.282783 -6.891576 -4.361655
-13.434077 -6.865783 -4.397419
-13.544548 -6.817752 -4.419803
-13.696696 -6.789325 -4.455774
-13.828957 -6.749502 -4.485243
-13.905729 -6.681636 -4.496761
-14.147123 -6.691091 -4.561459
-14.517352 -6.757507 -4.667375
-14.815218 -6.785869 -4.749664
-15.171153 -6.836595 -4.850234
-14.811838 -6.565636 -4.722392
-15.031303 -6.552863 -4.779454
-0.893004 -0.382800 -0.283193
-19.306640 0.000000 -5.787679
-19.173438 0.117648 -5.747856
-19.082093 0.234184 -5.720796
-18.990622 0.349614 -5.693908
-18.898542 0.463933 -5.667047
-18.898707 0.579987 -5.668057
-18.901768 0.696193 -5.670150
-18.931851 0.813651 -5.680565
-18.959873 0.931439 -5.690581
-18.941976 1.047103 -5.687030
-18.898041 1.161027 -5.675872
-18.826493 1.272630 -5.656622
-18.725202 1.381254 -5.628628
-18.644748 1.490398 -5.607088
-18.575381 1.599616 -5.589074
-18.538306 1.711079 -5.580972
-18.528472 1.824895 -5.581278
-18.529331 1.939848 -5.585017
-18.518322 2.053643 -5.585391
-18.516835 2.168573 -5.588851
-18.520113 2.284238 -5.593966
-18.280665 2.368668 -5.525927
-17.987159 2.442949 -5.441634
-17.966555 2.552521 -5.440036
-17.849585 2.647736 -5.409437
-17.613632 2.723291 -5.342893
-17.578098 2.828340 -5.337278
-17.741521 2.966426 -5.392324
-17.878662 3.102242 -5.439689
-18.002621 3.237662 -5.483346
-18.038013 3.358415 -5.500299
-18.030194 3.471558 -5.504306
-18.035968 3.587577 -5.512686
-17.989000 3.693123 -5.505153
-17.937652 3.797430 -5.496466
-17.884184 3.900915 -5.487313
-17.813599 4.000177 -5.473084
-17.767471 4.104496 -5.466547
-17.683274 4.199503 -5.448467
-17.629763 4.301239 -5.440009
-17.577880 4.403030 -5.432234
-17.576633 4.517511 -5.440313
-17.653240 4.652858 -5.472758
-17.788389 4.805401 -5.523693
-17.329602 4.795747 -5.390266
-16.794617 4.758829 -5.232846
-16.956105 4.917179 -5.292463
-15.432347 6.503510 -5.020278
-15.417767 6.609059 -5.028632
-15.455529 6.737803 -5.054338
-14.807293 6.563621 -4.855428
-13.793097 6.215600 -4.535286
-7.634726 3.496961 -2.517370
-5.269494 3.246967 -1.855478
-11.766368 7.350212 -4.158940
-11.822175 7.486310 -4.194823
-11.892653 7.633574 -4.236371
-11.977290 7.792082 -4.283471
-12.045105 7.941812 -4.325070
-12.093756 8.080789 -4.360261
-11.499091 7.785927 -4.163008
-11.024722 7.563809 -4.007999
-8.022753 11.541213 -4.213585
-8.178419 11.920554 -4.333676
-8.200862 12.111912 -4.384867
-8.170129 12.227462 -4.408468
-8.110898 12.301552 -4.417153
-7.994459 12.288366 -4.394722
-7.892698 12.296354 -4.380176
-7.782399 12.289752 -4.360732
-7.650274 12.246713 -4.328723
-7.525251 12.212710 -4.300302
-7.448056 12.255169 -4.299080
-7.392300 12.333308 -4.310498
-7.309052 12.365858 -4.306118
-7.252730 12.444259 -4.317841
-7.150561 12.443843 -4.302392
-7.095497 12.525304 -4.315422
-7.027080 12.583953 -4.320692
-6.916444 12.566349 -4.299995
-6.805162 12.545784 -4.278589
-6.657226 12.454794 -4.233548
-6.520249 12.380662 -4.194671
-6.418175 12.370354 -4.177757
-6.324782 12.375515 -4.166315
-6.250517 12.417645 -4.167508
-6.196760 12.501263 -4.182731
-6.142356 12.584984 -4.198053
-6.088161 12.670597 -4.214071
-6.039292 12.769011 -4.234398
-5.973466 12.832974 -4.243375
-5.912975 12.909477 -4.256594
-5.843365 12.967068 -4.263681
-5.761370 12.997442 -4.261964
-5.692496 13.057747 -4.270204
-5.601865 13.068162 -4.262289
-5.517014 13.091466 -4.258769
-5.437240 13.126658 -4.259283
-5.342687 13.125607 -4.248225
-5.271272 13.181205 -4.255671
-5.190206 13.213076 -4.255599
-5.120752 13.275050 -4.265359
-5.070166 13.387984 -4.291569
-5.006343 13.468396 -4.307417
-4.946704 13.562181 -4.327622
-4.882402 13.645399 -4.344535
-4.817419 13.728777 -4.361588
-4.761940 13.841939 -4.388174
-4.700545 13.940971 -4.410342
-4.629189 14.012755 -4.423982
-4.559847 14.092588 -4.440270
-4.473987 14.122500 -4.440961
-4.391467 14.163290 -4.445231
-4.320065 14.241344 -4.461325
-4.232417 14.266966 -4.461132
-4.151872 14.317064 -4.468747
-4.064971 14.345888 -4.469874
-3.977859 14.374134 -4.470986
-3.896115 14.422441 -4.478491
-3.808277 14.448844 -4.479349
-3.725308 14.494346 -4.486285
-3.634966 14.511599 -4.484636
-3.546101 14.534634 -4.484946
-3.457533 14.558985 -4.485830
-3.368216 14.580275 -4.485937
-3.276997 14.593132 -4.483622
-3.184819 14.601158 -4.479999
-3.092077 14.605827 -4.475526
-2.997651 14.601396 -4.468448
-2.903273 14.595738 -4.461181
-2.806871 14.578015 -4.450416
-2.712138 14.566869 -4.441849
-2.617645 14.555093 -4.433277
-2.523625 14.544010 -4.425102
-2.431589 14.542785 -4.420106
-2.338764 14.535392 -4.413414
-2.252561 14.569054 -4.419355
-2.165969 14.601775 -4.425166
-2.074212 14.599864 -4.420646
-1.980641 14.583235 -4.411849
-1.881914 14.524048 -4.390367
-1.782261 14.450189 -4.364653
-1.684967 14.387458 -4.342500
-1.587584 14.315721 -4.317827
-1.492934 14.260429 -4.298306
-1.402565 14.240478 -4.289618
-1.314897 14.245966 -4.288760
-1.231800 14.304156 -4.303921
-1.147257 14.352083 -4.316143
-1.056740 14.325877 -4.306230
-0.965661 14.285382 -4.292196
-0.877488 14.282879 -4.289746
-0.795156 14.384288 -4.318656
-0.716253 14.579655 -4.375910
-0.633840 14.748039 -4.425198
-0.548364 14.888183 -4.466155
-0.458301 14.933617 -4.478856
-0.366264 14.919947 -4.473998
-0.274137 14.890805 -4.464671
-0.182460 14.867408 -4.457237
-0.091437 14.901678 -4.467258
0.000000 14.937670 -4.477964
0.091780 14.957563 -4.484012
0.183748 14.972363 -4.488702
0.275688 14.975054 -4.489931
0.367112 14.954495 -4.484358
0.458654 14.945096 -4.482299
0.547342 14.860434 -4.457831
0.634704 14.768159 -4.431235
0.721959 14.695819 -4.410776
0.809985 14.652531 -4.399192
0.899949 14.648477 -4.399550
0.990271 14.649444 -4.401582
1.078727 14.623941 -4.395826
1.166343 14.590842 -4.387945
1.254881 14.572177 -4.384565
1.345074 14.572904 -4.387185
1.438997 14.610381 -4.401042
1.532725 14.640511 -4.412868
1.626215 14.664076 -4.422896
1.716851 14.659706 -4.424671
1.802223 14.612041 -4.413540
1.890671 14.591629 -4.410795
1.977099 14.557159 -4.403960
2.063023 14.521101 -4.396798
2.158504 14.551455 -4.409916
2.250725 14.557179 -4.415753
2.344560 14.571413 -4.424351
2.438212 14.582393 -4.432145
2.528563 14.572468 -4.433760
2.616693 14.549798 -4.431665
2.709416 14.552245 -4.437390
2.810940 14.599150 -4.456868
2.917515 14.667338 -4.483065
3.027497 14.746775 -4.512938
3.134060 14.804138 -4.536293
3.233055 14.822302 -4.547852
3.324219 14.803419 -4.548231
3.409146 14.757451 -4.540449
3.490248 14.696745 -4.528275
3.571674 14.639450 -4.517290
3.658344 14.604926 -4.513478
3.743817 14.566362 -4.508575
3.829142 14.528008 -4.503891
3.905920 14.458736 -4.489761
3.968787 14.341355 -4.460790
4.027054 14.212074 -4.428180
4.086704 14.092345 -4.398606
4.153958 14.002490 -4.378433
4.235017 13.960982 -4.373497
4.314323 13.914486 -4.367142
4.393667 13.868964 -4.361234
4.467393 13.806850 -4.350240
4.528512 13.708003 -4.327769
4.594553 13.626617 -4.310894
4.665118 13.560499 -4.298952
4.742900 13.516413 -4.294121
4.830454 13.500213 -4.298310
4.917385 13.481799 -4.301973
5.002964 13.459304 -4.304509
5.079196 13.411828 -4.299212
5.147112 13.343386 -4.287316
5.212503 13.269839 -4.273881
5.274424 13.189088 -4.258216
5.343170 13.126794 -4.248609
5.419665 13.084228 -4.245516
5.493990 13.036832 -4.240996
5.574004 13.003166 -4.241090
5.648588 12.957028 -4.237267
5.722633 12.910053 -4.233308
5.787769 12.843693 -4.223114
5.858413 12.790355 -4.217316
5.933336 12.746763 -4.214868
6.015567 12.718848 -4.217763
6.095686 12.686258 -4.219280
6.169873 12.641363 -4.216860
6.236638 12.581713 -4.209649
6.297756 12.511493 -4.199004
6.353982 12.432651 -4.185550
6.404586 12.344161 -4.168911
6.457100 12.260754 -4.154045
6.515137 12.188963 -4.143188
6.577337 12.125773 -4.135350
6.648420 12.079382 -4.133363
6.716859 12.028415 -4.129948
6.782071 11.972030 -4.124799
6.847208 11.915930 -4.119869
6.896116 11.832379 -4.105534
6.948445 11.755763 -4.093667
6.997728 11.675003 -4.080420
7.050315 11.600719 -4.069500
7.105476 11.531457 -4.060422
7.158198 11.458987 -4.050293
7.215100 11.393888 -4.042856
7.289757 11.357007 -4.045564
7.374526 11.335460 -4.053932
7.479740 11.344294 -4.073428
7.605585 11.382562 -4.103849
7.733692 11.421944 -4.135079
7.869019 11.469584 -4.169728
8.001348 11.510422 -4.202344
8.112450 11.518793 -4.223494
8.219816 11.520434 -4.242509
8.301244 11.484854 -4.248084
8.385349 11.452539 -4.255083
8.476461 11.429184 -4.265650
8.560340 11.395477 -4.272593
8.651058 11.370282 -4.282969
8.726026 11.323947 -4.285603
8.795652 11.270587 -4.285753
8.870396 11.223686 -4.288535
8.929201 11.156683 -4.283788
9.003874 11.109564 -4.286828
9.096121 11.083656 -4.298287
9.190772 11.059901 -4.310863
9.312931 11.068035 -4.336226
9.436064 11.075705 -4.361832
9.541113 11.060801 -4.378936
9.659268 11.059834 -4.401935
9.756073 11.033296 -4.415116
9.866362 11.021005 -4.434340
9.973890 11.004492 -4.452236
10.056524 10.959759 -4.459019
10.125358 10.899759 -4.459801
10.162586 10.806099 -4.446910
10.179674 10.692046 -4.425596
10.192422 10.574742 -4.402846
10.203186 10.456734 -4.379697
10.242664 10.369138 -4.369250
10.298386 10.298386 -4.365982
10.382726 10.256086 -4.374975
10.504564 10.249857 -4.399730
10.643441 10.258637 -4.431449
10.778471 10.261957 -4.461369
10.909378 10.259715 -4.489411
10.992686 10.211683 -4.497824
11.074043 10.161388 -4.505516
11.144561 10.100841 -4.508905
11.193945 10.021183 -4.503923
11.252386 9.949801 -4.502787
11.300575 9.869522 -4.497752
11.348683 9.789441 -4.492908
11.413307 9.723687 -4.494786
11.478033 9.657914 -4.496854
11.552989 9.600527 -4.503056
11.623921 9.539505 -4.507804
11.684285 9.469664 -4.508594
11.737148 9.393773 -4.506666
11.789438 9.317525 -4.504707
11.831563 9.233443 -4.499070
11.871311 9.147815 -4.492756
11.896897 9.051732 -4.481334
11.918303 8.953090 -4.468620
11.929840 8.847772 -4.452506
11.902001 8.714437 -4.422076
11.910188 8.608675 -4.405409
12.065147 8.608468 -4.443105
12.260269 8.634656 -4.495365
12.506121 8.693498 -4.565864
12.606597 8.649097 -4.583085
12.277840 8.313211 -4.444938
12.111270 8.092492 -4.366576
13.453798 -4.813846 -4.283532
13.844190 -5.049565 -4.417609
13.581528 -5.048395 -4.343598
13.456689 -5.096185 -4.313592
13.537040 -5.221812 -4.349538
13.565906 -5.328801 -4.369237
13.640571 -5.454976 -4.403982
13.745225 -5.594898 -4.448770
13.635755 -5.648114 -4.424473
13.240248 -5.579714 -4.307169
12.647997 -5.421755 -4.125249
12.226323 -5.330038 -3.998308
12.777459 -7.342265 -4.417738
13.158787 -7.669170 -4.565764
12.989192 -7.677484 -4.523179
12.207915 -7.317143 -4.266673
12.227086 -7.430988 -4.289228
2.908849 -1.792380 -1.024255
3.062580 -1.992427 -1.095279
11.737633 -7.739083 -4.214665
13.139979 -8.779853 -4.737465
12.926388 -8.752337 -4.679731
12.618379 -8.657181 -4.587368
12.402114 -8.621199 -4.527892
12.162405 -8.565732 -4.459481
11.797512 -8.417511 -4.344546
11.263077 -8.140944 -4.166052
8.467859 -6.200019 -3.146153
6.821555 -5.059210 -2.545970
10.922238 -8.204841 -4.095158
12.394572 -9.430387 -4.668799
12.109400 -9.331282 -4.582862
11.843627 -9.242857 -4.503657
11.683892 -9.234110 -4.464378
11.300936 -9.044653 -4.339176
10.882345 -8.819722 -4.199151
7.323929 -6.010593 -2.840249
3.226697 -2.681383 -1.257683
3.681857 -3.098010 -1.442475
5.987528 -5.101137 -2.358007
6.919396 -5.968712 -2.739367
4.394714 -3.838188 -1.749144
0.779515 -0.689278 -0.311933
2.337063 -2.515804 -1.029379
9.851799 -10.736647 -4.368245
9.903825 -10.927187 -4.420959
9.689113 -10.823013 -4.354677
9.686276 -10.954362 -4.383529
9.695543 -11.101369 -4.418466
9.617094 -11.148885 -4.413808
9.527521 -11.183054 -4.404108
9.074981 -10.785242 -4.225433
8.675688 -10.440065 -4.069267
6.388528 -7.784444 -3.018839
6.428362 -8.667643 -3.234975
8.060761 -11.009223 -4.090373
8.159761 -11.289111 -4.175682
-2.119273 -3.129969 -1.133141
-3.066448 -2.423500 -1.171680
-11.608420 -9.059300 -4.414217
-11.999926 -9.246923 -4.541431
-12.041948 -9.162094 -4.535972
-12.189494 -9.156810 -4.570300
-12.189537 -9.040377 -4.549432
-12.356498 -9.047213 -4.590940
-12.441461 -8.992679 -4.601919
-12.518718 -8.932091 -4.610137
-12.176396 -8.575586 -4.464612
-11.507394 -7.999244 -4.201238
-11.998135 -8.231646 -4.361881
-11.074311 -5.659772 -3.728254
-13.224416 -6.656612 -4.438270
-13.212758 -6.549441 -4.420786
-12.734640 -6.215398 -4.247975
-13.267693 -6.375063 -4.412657
-17.357927 -4.803585 -5.399076
-18.265632 -4.934324 -5.671888
-18.558064 -4.891343 -5.753266
-18.696331 -4.805294 -5.786881
-18.878691 -4.728866 -5.834234
-18.769643 -4.579342 -5.791742
-18.817743 -4.468921 -5.798013
-18.892246 -4.364332 -5.812608
-18.928004 -4.250425 -5.815476
-19.004423 -4.145263 -5.831031
-19.073830 -4.037961 -5.844614
-19.189353 -3.939554 -5.872495
-19.246521 -3.828371 -5.882691
-19.292000 -3.714508 -5.889514
-19.333794 -3.599670 -5.895419
-19.362937 -3.482307 -5.897679
-19.394596 -3.365282 -5.900921
-19.402351 -3.244120 -5.897113
-19.396978 -3.121000 -5.889549
-19.395642 -2.998813 -5.883445
-19.372302 -2.873610 -5.870906
-19.386589 -2.754266 -5.870004
-19.387715 -2.633167 -5.865342
-19.355373 -2.507920 -5.850792
-19.303672 -2.380881 -5.830638
-19.233703 -2.252528 -5.805220
-19.210047 -2.130354 -5.794025
-19.231820 -2.013392 -5.796757
-19.235210 -1.894503 -5.794166
-19.269192 -1.778539 -5.801006
-19.335858 -1.665105 -5.817890
-19.399832 -1.550757 -5.834166
-19.482726 -1.437132 -5.856333
-19.501254 -1.318243 -5.859361
-19.536404 -1.200245 -5.867599
-19.544706 -1.080422 -5.867990
-19.496201 -0.957787 -5.851553
-19.447805 -0.835826 -5.835378
-19.450697 -0.716412 -5.834818
-19.411011 -0.595709 -5.821706
-19.451637 -0.477511 -5.832902
-19.462090 -0.358294 -5.835268
-19.372644 -0.237750 -5.807903
-19.314292 -0.118512 -5.790082
-19.254952 0.000000 -5.932795
-19.181395 0.117697 -5.910242
-19.100254 0.234407 -5.885573
-19.033897 0.350411 -5.865677
-18.941131 0.464979 -5.837859
-18.875925 0.579288 -5.818748
-18.816904 0.693068 -5.801756
-18.783812 0.807289 -5.792971
-18.747464 0.921004 -5.783395
-18.671746 1.032165 -5.761882
-18.587336 1.141938 -5.737888
-18.485844 1.249603 -5.708817
-18.375921 1.355489 -5.677333
-18.320413 1.464472 -5.662853
-18.303398 1.576194 -5.660476
-18.326471 1.691526 -5.670715
-18.387025 1.810964 -5.692783
-18.401997 1.926517 -5.700971
-18.405405 2.041121 -5.705800
-18.336974 2.147509 -5.688564
-18.283039 2.254998 -5.676017
-18.234609 2.362700 -5.665376
-18.162613 2.466778 -5.647604
-18.132304 2.576069 -5.642988
-18.061320 2.679144 -5.625907
-17.953476 2.775836 -5.597515
-17.798275 2.863767 -5.554501
-17.381694 2.906262 -5.429957
-17.132928 2.972845 -5.357841
-16.624716 2.989854 -5.204551
-16.909090 3.148226 -5.299526
-1.252600 0.241177 -0.393037
-15.608682 5.584876 -5.107901
-16.719829 6.098432 -5.483663
-16.431789 6.107867 -5.401384
-16.370073 6.199514 -5.393500
-16.434363 6.339433 -5.427395
-16.248630 6.382597 -5.378890
-16.030746 6.410827 -5.319684
-15.879145 6.463495 -5.282438
-15.708676 6.506746 -5.238912
-15.488859 6.527325 -5.178862
-15.261136 6.541916 -5.116046
-14.989969 6.534844 -5.038489
-14.728154 6.528542 -4.963858
-14.484645 6.527233 -4.895194
-14.289319 6.544989 -4.842663
-14.174705 6.598012 -4.817450
-14.078494 6.658632 -4.798547
-14.028512 6.740633 -4.795519
-13.979464 6.822960 -4.792973
-13.883006 6.881677 -4.774289
-13.818583 6.955690 -4.766723
-13.726110 7.015033 -4.749583
-13.638783 7.076281 -4.734301
-13.537979 7.129748 -4.714406
-13.418104 7.172126 -4.687898
-13.343015 7.237600 -4.677092
-13.275620 7.306822 -4.669096
-13.184458 7.362412 -4.652835
-13.073996 7.406327 -4.629803
-12.929677 7.429734 -4.594754
-12.814034 7.468241 -4.569857
-12.808305 7.570568 -4.584295
-12.907179 7.736266 -4.636586
-12.924597 7.854899 -4.660069
-12.810559 7.893635 -4.636328
-12.358093 7.719851 -4.489633
-12.332081 7.809204 -4.497506
-1.411779 1.007303 -0.534367
-10.536725 7.615937 -4.005829
-11.319309 8.287800 -4.322602
-11.378864 8.439140 -4.365038
-11.421435 8.579841 -4.401481
-11.353469 8.638266 -4.395633
-11.077735 8.536300 -4.309077
-10.757990 8.395617 -4.204660
-8.346024 6.596098 -3.277723
-10.988140 9.716144 -4.519393
-11.120558 9.955484 -4.598895
-11.050473 10.015565 -4.595240
-10.983501 10.078309 -4.593020
-10.985529 10.205034 -4.619966
-10.847480 10.201503 -4.588148
-10.799162 10.281657 -4.594309
-10.745128 10.356647 -4.598270
-10.675944 10.417081 -4.595931
-10.602451 10.473131 -4.591871
-10.543351 10.543351 -4.594207
-10.461570 10.590747 -4.586802
-10.387040 10.645157 -4.582677
-10.314894 10.701808 -4.579732
-10.231579 10.746564 -4.571932
-10.159299 10.802603 -4.569167
-10.114446 10.888012 -4.578955
-10.036306 10.937726 -4.573877
-9.944866 10.972469 -4.562803
-9.861051 11.015073 -4.555272
-9.749872 11.026283 -4.535082
-9.626999 11.022887 -4.509304
-9.538703 11.058007 -4.499643
-9.457607 11.100991 -4.493435
-9.384603 11.153214 -4.491181
-9.322600 11.218539 -4.494367
-9.248512 11.269345 -4.491901
-9.163170 11.306112 -4.484061
-9.086817 11.353618 -4.480704
-8.984301 11.367810 -4.464465
-8.879836 11.378458 -4.447164
-8.774121 11.386361 -4.429128
-8.690122 11.421625 -4.422020
-8.647184 11.511083 -4.436029
-8.588677 11.580491 -4.442384
-8.547867 11.674502 -4.458243
-8.486931 11.741754 -4.463955
-8.407374 11.783304 -4.460055
-8.342996 11.846145 -4.464379
-8.280663 11.912234 -4.470053
-8.221307 11.983067 -4.477619
-8.161700 12.054072 -4.485354
-8.106214 12.131807 -4.495686
-8.041805 12.196761 -4.501386
-7.987684 12.277953 -4.513177
-7.921421 12.341102 -4.518438
-7.837034 12.376029 -4.513534
-7.724370 12.365327 -4.492261
-7.623299 12.371832 -4.477546
-7.535687 12.399359 -4.470690
-7.463497 12.452093 -4.473107
-7.412348 12.540620 -4.488486
-7.372334 12.649476 -4.511171
-7.326977 12.750853 -4.531207
-7.276967 12.845643 -4.548938
-7.162023 12.825607 -4.526195
-6.982435 12.686246 -4.461811
-6.788867 12.515744 -4.387111
-6.646261 12.434279 -4.344179
-6.523037 12.385956 -4.313231
-6.477052 12.483832 -4.333393
-6.449838 12.620209 -4.366913
-6.411004 12.736478 -4.393450
-6.373912 12.858648 -4.422018
-6.327610 12.964549 -4.445001
-6.257998 13.024059 -4.452155
-6.194384 13.096925 -4.463987
-6.143211 13.197643 -4.485384
-6.105821 13.330507 -4.517721
-6.043664 13.411553 -4.532535
-5.952688 13.429049 -4.526018
-5.865913 13.455540 -4.522730
-5.786364 13.498565 -4.525173
-5.733896 13.606111 -4.549346
-5.684753 13.724208 -4.577083
-5.607919 13.777214 -4.583199
-5.536051 13.843305 -4.593798
-5.434366 13.834650 -4.579775
-5.326580 13.808641 -4.560259
-5.239156 13.834208 -4.558000
-5.150101 13.855142 -4.554400
-5.078778 13.924283 -4.566798
-5.010728 14.004046 -4.582788
-4.935039 14.063974 -4.592403
-4.867903 14.149952 -4.610638
-4.794940 14.220929 -4.624091
-4.719407 14.285848 -4.635697
-4.651098 14.374608 -4.655151
-4.574748 14.440561 -4.667331
-4.503817 14.525640 -4.685809
-4.436325 14.624604 -4.708864
-4.359222 14.694410 -4.722639
-4.277034 14.748666 -4.731553
-4.185159 14.770051 -4.730086
-4.090157 14.779928 -4.725122
-3.990111 14.770390 -4.714157
-3.885931 14.743469 -4.697866
-3.783297 14.719971 -4.682894
-3.684053 14.707564 -4.671667
-3.585410 14.695751 -4.660839
-3.498011 14.729430 -4.664626
-3.410137 14.761743 -4.668144
-3.323799 14.801547 -4.674194
-3.231313 14.814316 -4.671877
-3.135747 14.812107 -4.665025
-3.041024 14.812664 -4.659236
-2.946957 14.815351 -4.654306
-2.853409 14.819720 -4.650090
-2.758700 14.816953 -4.643823
-2.664323 14.814639 -4.637887
-2.568997 14.805497 -4.630003
-2.472393 14.786824 -4.619332
-2.379877 14.790909 -4.615960
-2.290496 14.814408 -4.618820
-2.201902 14.844019 -4.623752
-2.109409 14.847603 -4.620750
-2.012234 14.815852 -4.606940
-1.909770 14.739031 -4.579323
-1.804746 14.632490 -4.542695
-1.702158 14.534247 -4.508868
-1.602520 14.450407 -4.479724
-1.506625 14.391203 -4.458420
-1.414176 14.358373 -4.445477
-1.322900 14.332672 -4.434923
-1.237029 14.364870 -4.442454
-1.149731 14.383034 -4.445806
-1.061227 14.386710 -4.444846
-0.973665 14.403797 -4.448195
-0.885829 14.418649 -4.451020
-0.802719 14.521098 -4.481041
-0.720548 14.667087 -4.524642
-0.636290 14.805050 -4.565911
-0.549934 14.930799 -4.603565
-0.460411 15.002353 -4.624669
-0.369364 15.046209 -4.637402
-0.277383 15.067121 -4.643236
-0.184929 15.068641 -4.643267
-0.092640 15.097861 -4.652008
0.000000 15.136246 -4.663748
0.092958 15.149676 -4.667974
0.186250 15.176243 -4.676424
0.279298 15.171112 -4.675283
0.372212 15.162247 -4.673167
