-15.229600 13.634032 -2.374124
-15.885268 14.397567 -2.490060
-16.657922 15.285079 -2.625828
-17.387631 16.152283 -2.756425
-17.768823 16.710673 -2.833056
-17.820486 16.966513 -2.857838
-17.818025 17.173830 -2.874288
-17.973863 17.538045 -2.916732
-18.202691 17.980670 -2.971713
-18.707284 18.707284 -3.072773
-19.262084 19.499927 -3.183496
-19.557248 20.043243 -3.252543
-19.679363 20.417541 -3.293626
-19.680047 20.670600 -3.314905
-19.658878 20.903713 -3.332882
-19.593436 21.091968 -3.343665
-19.540014 21.295018 -3.356784
-19.492611 21.506782 -3.371248
-19.403304 21.674040 -3.378739
-19.307530 21.835188 -3.385329
-19.201221 21.985343 -3.390278
-19.078491 22.117273 -3.392507
-18.997830 22.298955 -3.402430
-18.911100 22.475063 -3.411531
-18.866487 22.703368 -3.428549
-18.789778 22.895411 -3.440075
-18.680583 23.049314 -3.445912
-18.596095 23.235085 -3.456561
-18.471946 23.372500 -3.460076
-18.319771 23.474618 -3.458488
-18.157090 23.562836 -3.455005
-17.930055 23.565878 -3.439255
-17.642318 23.485355 -3.411640
-17.305751 23.334104 -3.374179
-16.909018 23.093992 -3.324393
-16.516985 22.851415 -3.274823
-16.165951 22.657292 -3.232727
-15.913922 22.596033 -3.209994
-15.741193 22.644655 -3.203119
-15.608214 22.749943 -3.204405
-15.477560 22.858918 -3.206317
-15.332990 22.947442 -3.205477
-15.182807 23.027301 -3.203559
-15.036144 23.112213 -3.202476
-14.895748 23.206688 -3.202842
-14.767837 23.320963 -3.206047
-14.665646 23.477063 -3.215075
-14.545336 23.605587 -3.220392
-14.442439 23.763856 -3.229834
-14.330961 23.909763 -3.237652
-14.226624 24.069389 -3.247385
-14.182652 24.334642 -3.271370
-14.171829 24.662683 -3.303717
-14.159719 24.995400 -3.336585
-14.163017 25.362845 -3.373970
-14.178533 25.760695 -3.415258
-14.224650 26.224123 -3.465061
-14.282972 26.721560 -3.519142
-14.291010 27.135798 -3.562080
-14.251190 27.467661 -3.594097
-14.130450 27.648637 -3.606364
-13.978197 27.769908 -3.610927
-13.821511 27.883336 -3.614580
-13.656099 27.979784 -3.616153
-13.507214 28.111027 -3.622335
-13.345603 28.216908 -3.625358
-13.176797 28.308104 -3.626619
-12.983277 28.345681 -3.621159
-12.782951 28.366770 -3.613765
-12.576260 28.371588 -3.604480
-12.381907 28.402271 -3.598658
-12.207094 28.476994 -3.598567
-12.049573 28.592745 -3.603783
-11.905682 28.742859 -3.613428
-11.771862 28.920438 -3.626603
-11.662017 29.161735 -3.647820
-11.543895 29.388113 -3.667208
-11.425941 29.620638 -3.687406
-11.287023 29.803854 -3.701522
-11.122919 29.923613 -3.707850
-10.969544 30.074762 -3.718168
-10.791223 30.159449 -3.720382
-10.593031 30.188235 -3.715845
-10.366323 30.132680 -3.701108
-10.098807 29.951246 -3.671142
-9.784105 29.616907 -3.622736
-9.569282 29.574665 -3.610318
-9.429040 29.763522 -3.626242
-9.256069 29.852528 -3.630098
-9.120592 30.066562 -3.649251
-8.939414 30.133686 -3.650671
-8.683431 29.943421 -3.621098
-8.399116 29.641734 -3.578315
-8.032218 29.024706 -3.497812
-7.618413 28.201455 -3.392904
-7.088383 26.893773 -3.230283
-6.568123 25.555109 -3.064594
-6.184590 24.690267 -2.956275
-5.877288 24.089617 -2.879984
-5.582297 23.505949 -2.806057
-5.261364 22.775301 -2.714930
-4.799667 21.373887 -2.544316
-4.067288 18.646936 -2.216691
-3.737868 17.656304 -2.096162
-3.574825 17.412778 -2.064607
-3.432307 17.255371 -2.043408
-3.320846 17.247442 -2.040018
-3.225960 17.326598 -2.047001
-3.117782 17.336040 -2.045817
-2.997575 17.275448 -2.036458
-2.873857 17.187891 -2.024020
-2.793198 17.359692 -2.042194
-2.712266 17.542319 -2.061682
-2.621259 17.671090 -2.074886
-2.544129 17.907491 -2.100771
-2.502941 18.428875 -2.160094
-2.509080 19.364324 -2.267893
-2.450598 19.868924 -2.325185
-2.346851 20.039099 -2.343371
-2.244616 20.240379 -2.365254
-2.138218 20.424155 -2.385151
-2.031512 20.626287 -2.407255
-1.924186 20.847172 -2.431611
-1.808677 21.003079 -2.448455
-1.693541 21.186047 -2.468527
-1.574489 21.344832 -2.485855
-1.451660 21.474949 -2.499925
-1.328568 21.625112 -2.516409
-1.201362 21.732506 -2.528000
-1.070716 21.794915 -2.534448
-0.940268 21.877948 -2.543385
-0.808853 21.960485 -2.552355
-0.676320 22.037685 -2.560797
-0.543077 22.122487 -2.570216
-0.408319 22.179360 -2.576484
-0.272864 22.233856 -2.582571
-0.136491 22.244219 -2.583629
0.000000 22.227461 -2.581634
0.136150 22.188693 -2.577180
0.271167 22.095577 -2.566509
0.405308 22.015829 -2.557487
0.537595 21.899178 -2.544271
0.669166 21.804583 -2.533711
0.799176 21.697776 -2.521822
0.929169 21.619696 -2.513362
1.062077 21.619082 -2.514001
1.194436 21.607209 -2.513426
1.328649 21.626432 -2.516563
1.462530 21.635757 -2.518645
1.595282 21.626708 -2.518683
1.729048 21.630243 -2.520283
1.868130 21.693476 -2.528939
2.007827 21.753365 -2.537309
2.150155 21.830889 -2.547842
2.288785 21.862357 -2.553106
2.420158 21.823292 -2.550230
2.547558 21.752876 -2.543780
2.672366 21.666974 -2.535604
2.798776 21.600110 -2.529742
2.902417 21.370171 -2.504851
2.847463 20.042578 -2.351244
2.701662 18.213125 -2.138531
2.757902 17.837484 -2.096371
2.858008 17.762484 -2.089579
2.972467 17.777651 -2.093469
3.103417 17.885434 -2.108364
3.230576 17.963219 -2.119831
3.363988 18.067946 -2.134585
3.497921 18.167116 -2.148796
3.634463 18.271680 -2.163761
3.775562 18.390556 -2.180541
3.918544 18.509750 -2.197483
4.051956 18.576647 -2.208335
4.165007 18.547617 -2.207881
4.271331 18.489666 -2.204061
4.438244 18.688565 -2.230975
4.741348 19.433669 -2.323352
5.046471 20.146642 -2.412247
5.251960 20.434213 -2.450491
5.411561 20.531804 -2.466130
5.557639 20.572986 -2.475126
5.687668 20.552593 -2.476825
5.831693 20.580915 -2.484503
5.982630 20.630139 -2.494830
6.095482 20.547135 -2.489269
6.190676 20.407925 -2.476959
6.250959 20.160495 -2.451537
6.226407 19.654155 -2.394566
6.144165 18.989056 -2.318083
6.024148 18.235355 -2.230546
5.943490 17.627322 -2.160592
6.020063 17.499034 -2.149354
6.158630 17.550987 -2.160337
6.296242 17.596817 -2.170692
6.406045 17.563199 -2.171353
6.425675 17.286777 -2.142013
6.446953 17.023448 -2.114246
8.517981 22.082036 -2.748942
8.977489 22.854630 -2.851925
9.245159 23.118202 -2.891839
9.425831 23.156843 -2.903853
9.559344 23.078297 -2.901304
9.671439 22.949608 -2.892532
9.809928 22.884829 -2.891899
9.934800 22.788968 -2.887435
10.021552 22.608258 -2.872275
10.042014 22.284330 -2.838896
10.016846 21.869235 -2.793793
9.964793 21.407660 -2.742586
9.839339 20.803535 -2.672875
9.580757 19.939338 -2.569346
9.336957 19.130356 -2.472438
9.220520 18.601357 -2.411336
9.208036 18.293225 -2.378672
9.273641 18.145461 -2.366813
9.395351 18.108544 -2.369472
9.515029 18.067155 -2.371652
9.617908 17.993840 -2.369730
9.683165 17.851583 -2.358775
9.736448 17.689959 -2.345270
9.791332 17.534119 -2.332530
9.858181 17.402124 -2.322974
9.944020 17.305192 -2.318136
10.027278 17.204837 -2.312892
10.113270 17.110189 -2.308467
10.170312 16.968140 -2.297678
10.209021 16.798112 -2.283094
10.228788 16.600273 -2.264692
10.221963 16.363525 -2.240909
10.227711 16.151321 -2.220401
10.277202 16.011269 -2.209775
10.373403 15.945065 -2.209381
10.439439 15.833180 -2.202712
10.470757 15.670595 -2.188991
10.438375 15.416509 -2.162404
10.307223 15.023419 -2.116098
10.164186 14.621795 -2.068274
10.020709 14.228314 -2.021275
9.950870 13.946582 -1.989889
9.987074 13.817217 -1.980137
10.109417 13.807236 -1.987559
10.251766 13.822906 -1.998832
10.428436 13.882275 -2.016632
10.634625 13.977329 -2.039881
10.726995 13.920646 -2.041177
10.679018 13.683897 -2.016032
10.807005 13.674072 -2.024316
11.908814 14.879592 -2.213558
12.176871 15.024612 -2.246205
12.234942 14.908321 -2.240001
12.339884 14.849450 -2.242490
12.398542 14.735156 -2.236676
12.452313 14.616068 -2.230156
12.469202 14.455271 -2.217253
12.464223 14.271500 -2.200755
12.503912 14.140870 -2.192401
12.576185 14.047955 -2.189918
12.676548 13.986415 -2.192409
12.772710 13.919902 -2.194227
12.840783 13.822864 -2.191310
12.880132 13.695725 -2.183642
12.874796 13.522822 -2.168629
12.897072 13.380845 -2.158511
12.976130 13.298586 -2.158045
13.057571 13.218803 -2.158060
13.175874 13.175874 -2.164209
13.282115 13.120111 -2.168396
13.376623 13.052275 -2.170709
13.500529 13.012430 -2.177818
13.590170 12.938918 -2.179430
13.681721 12.866962 -2.181409
13.783032 12.803782 -2.184995
13.866984 12.724153 -2.185886
13.983035 12.673484 -2.191880
14.055690 12.583110 -2.191124
14.123276 12.488355 -2.189673
14.230990 12.428843 -2.194508
14.348980 12.377515 -2.200950
14.502261 12.355354 -2.212791
14.614982 12.297424 -2.218435
14.685771 12.203867 -2.217772
14.735919 12.093456 -2.214097
14.722263 11.931828 -2.201003
14.658686 11.732013 -2.180695
14.640222 11.570581 -2.167346
14.692199 11.465905 -2.164584
14.805167 11.408590 -2.170873
14.994693 11.408684 -2.188358
15.176719 11.400829 -2.204672
15.363786 11.394560 -2.221648
15.508244 11.354865 -2.232420
15.572199 11.255574 -2.231643
15.613437 11.140169 -2.227715
15.601762 10.988000 -2.216387
15.584856 10.833648 -2.204501
15.624241 10.719433 -2.200726
15.675379 10.613653 -2.198715
15.777915 10.542466 -2.203982
15.889198 10.476374 -2.210506
15.980814 10.396660 -2.214334
16.067933 10.313574 -2.217595
16.106547 10.199358 -2.214246
16.143158 10.084304 -2.210730
16.176959 9.967950 -2.206942
16.209807 9.851479 -2.203135
16.268883 9.751193 -2.202991
16.300876 9.634912 -2.199276
16.338839 9.522559 -2.196473
16.394245 9.420566 -2.196109
16.450375 9.319022 -2.195927
16.570277 9.253107 -2.204312
16.726366 9.206092 -2.217520
16.870301 9.150893 -2.229116
17.011444 9.092806 -2.240351
17.106660 9.009186 -2.245569
17.142858 8.894319 -2.243114
17.173429 8.776862 -2.240025
17.170869 8.643089 -2.232732
17.175775 8.513872 -2.226535
17.203973 8.396747 -2.223469
17.211624 8.270103 -2.217858
17.215318 8.142239 -2.211854
17.203452 8.007827 -2.203975
17.181865 7.869873 -2.194982
17.181788 7.742650 -2.188862
17.179979 7.615361 -2.182637
17.193681 7.495547 -2.178494
17.216797 7.380240 -2.175644
17.205174 7.250616 -2.168512
17.185910 7.118637 -2.160538
17.129133 6.972294 -2.147982
17.050160 6.818499 -2.132792
16.998098 6.676994 -2.121115
16.975382 6.548127 -2.113227
17.041001 6.453601 -2.116426
17.161892 6.379254 -2.126539
17.296615 6.308811 -2.138395
17.432173 6.237331 -2.150382
17.525492 6.149683 -2.157198
17.569989 6.044473 -2.158070
17.606400 5.936435 -2.158027
17.615671 5.819432 -2.154746
17.636034 5.706377 -2.152914
17.666835 5.596827 -2.152441
17.675590 5.480490 -2.149370
17.686953 5.365279 -2.146708
17.669819 5.241902 -2.140684
17.640254 5.115579 -2.133259
17.611140 4.990194 -2.125996
17.558749 4.859160 -2.116032
17.525090 4.734272 -2.108435
17.520986 4.618000 -2.104493
17.520661 4.503125 -2.101095
17.544536 4.394678 -2.100685
17.571893 4.287120 -2.100771
17.601862 4.180168 -2.101248
17.640201 4.075095 -2.102801
17.672299 3.968447 -2.103684
17.696981 3.860083 -2.103763
17.723908 3.752180 -2.104188
17.754417 3.644963 -2.105115
17.793497 3.539347 -2.107134
17.828791 3.432780 -2.108780
17.875470 3.328152 -2.111846
17.910914 3.221169 -2.113658
17.918380 3.109134 -2.112248
17.930991 2.998105 -2.111526
17.938503 2.886330 -2.110286
17.932722 2.772627 -2.107564
17.935131 2.660425 -2.105889
17.927216 2.546932 -2.103085
17.915728 2.433247 -2.099947
17.899211 2.319242 -2.096303
17.869146 2.203949 -2.091159
17.834070 2.088612 -2.085515
17.832784 1.977619 -2.083906
17.824485 1.866057 -2.081559
17.798555 1.753005 -2.077236
17.747018 1.638043 -2.070009
17.647617 1.519722 -2.057289
17.536022 1.401770 -2.043238
17.446699 1.286946 -2.031872
17.402103 1.176344 -2.025800
17.422529 1.070377 -2.027375
17.463448 0.965371 -2.031409
17.506846 0.860056 -2.035805
17.544782 0.754038 -2.039640
17.535782 0.645881 -2.038094
17.506161 0.537251 -2.034230
17.480763 0.429129 -2.030935
17.480723 0.321817 -2.030663
17.552614 0.215414 -2.038822
17.641449 0.108248 -2.049025
17.756273 -0.000000 -2.062323
17.844631 -0.109495 -2.072624
17.841621 -0.218961 -2.072392
17.835062 -0.328341 -2.071825
17.749126 -0.435717 -2.062114
17.672269 -0.542349 -2.053532
17.672323 -0.650910 -2.053964
17.657470 -0.758881 -2.052740
17.680177 -0.868571 -2.055961
17.691355 -0.977970 -2.057920
17.631870 -1.083238 -2.051735
17.492047 -1.182424 -2.036270
17.206735 -1.269245 -2.003926
16.930416 -1.353360 -1.972675
16.758811 -1.443183 -1.953675
16.607688 -1.532883 -1.937118
16.600432 -1.635000 -1.937405
16.631083 -1.741119 -1.942193
16.682747 -1.850082 -1.949515
16.762790 -1.963151 -1.960240
16.812594 -2.073636 -1.967515
16.830732 -2.180797 -1.971166
16.845719 -2.287923 -1.974528
16.845587 -2.393264 -1.976197
16.904631 -2.507565 -1.984891
16.974003 -2.624397 -1.994890
17.038086 -2.741451 -2.004361
17.073446 -2.854722 -2.010543
17.073361 -2.962509 -2.012636
17.108558 -3.076870 -2.018972
17.116345 -3.186814 -2.022161
17.102564 -3.292951 -2.022882
17.096070 -3.400620 -2.024544
17.048686 -3.500077 -2.021438
16.992182 -3.597273 -2.017317
16.919085 -3.690407 -2.011289
16.840933 -3.781758 -2.004720
16.777169 -3.875724 -1.999923
16.743610 -3.976347 -1.998793
16.736478 -4.083299 -2.000895
16.763838 -4.199123 -2.007209
16.809069 -4.320233 -2.015761
16.857446 -4.443111 -2.024793
16.913396 -4.569028 -2.034843
16.932494 -4.685852 -2.040561
16.957551 -4.804997 -2.047095
16.967923 -4.920606 -2.051954
16.971254 -5.034667 -2.056054
16.992905 -5.154741 -2.062470
16.995744 -5.269697 -2.066700
16.978536 -5.378775 -2.068582
16.946922 -5.483405 -2.068790
16.878258 -5.575823 -2.064546
16.786029 -5.659827 -2.057474
16.702244 -5.745949 -2.051487
16.623438 -5.833153 -2.046165
16.569279 -5.928583 -2.043938
16.528966 -6.028817 -2.043490
16.492712 -6.130513 -2.043620
16.464019 -6.235092 -2.044767
16.413908 -6.331543 -2.043330
16.360956 -6.426719 -2.041609
16.308362 -6.521848 -2.040001
16.273211 -6.623897 -2.040650
16.256808 -6.733790 -2.043736
16.246663 -6.846679 -2.047703
16.234417 -6.959128 -2.051503
16.193264 -7.059417 -2.051738
16.098402 -7.135931 -2.045228
15.962853 -7.193359 -2.033576
15.786768 -7.230871 -2.016758
15.581697 -7.252936 -1.996208
15.438077 -7.301667 -1.983511
15.317907 -7.360181 -1.973837
15.206667 -7.421921 -1.965334
15.118440 -7.494070 -1.959838
14.984112 -7.542368 -1.948387
14.870556 -7.599928 -1.939649
14.771724 -7.664091 -1.932855
14.666034 -7.723835 -1.925191
14.585076 -7.795886 -1.920807
14.461205 -7.844136 -1.910796
14.317879 -7.880476 -1.898212
14.165119 -7.910028 -1.884358
13.998916 -7.930288 -1.868687
13.862890 -7.965982 -1.857019
13.766469 -8.023337 -1.850663
13.675576 -8.083183 -1.845077
13.622864 -8.165231 -1.844690
13.555091 -8.238081 -1.842323
13.454208 -8.290240 -1.835490
13.376620 -8.356104 -1.831866
13.294163 -8.418436 -1.827613
13.250878 -8.505382 -1.828803
13.246513 -8.617802 -1.835464
13.235904 -8.726953 -1.841379
13.225127 -8.836748 -1.847389
13.204457 -8.940615 -1.852130
13.141423 -9.016029 -1.851013
13.064834 -9.081882 -1.848040
12.984060 -9.144407 -1.844516
12.908873 -9.210465 -1.841829
12.857244 -9.293206 -1.842564
12.801347 -9.372923 -1.842761
12.761668 -9.464698 -1.845374
12.707903 -9.546241 -1.846035
12.618206 -9.600539 -1.841528
12.518898 -9.646833 -1.835639
12.398528 -9.675906 -1.826660
12.262691 -9.691551 -1.815375
12.156735 -9.729588 -1.808493
12.051394 -9.767191 -1.801704
11.969414 -9.823044 -1.798425
11.890468 -9.880972 -1.795639
11.808586 -9.936050 -1.792447
11.722866 -9.987419 -1.788704
11.616401 -10.020377 -1.781807
11.500115 -10.043794 -1.773390
11.371041 -10.054720 -1.762967
11.247758 -10.069358 -1.753399
11.155127 -10.110417 -1.748597
11.081267 -10.168018 -1.746766
11.013108 -10.230654 -1.745885
10.957717 -10.305175 -1.747095
10.898000 -10.375758 -1.747692
10.848573 -10.456352 -1.750022
10.812595 -10.550418 -1.754628
10.776852 -10.645405 -1.759394
10.732408 -10.732408 -1.762857
10.672044 -10.803819 -1.763797
10.595843 -10.859149 -1.762182
10.514871 -10.909287 -1.759815
10.437270 -10.962607 -1.758053
10.362139 -11.018288 -1.756753
10.294404 -11.081734 -1.756764
10.227102 -11.145658 -1.756917
10.157848 -11.207458 -1.756800
10.087446 -11.267962 -1.756549
10.006253 -11.316228 -1.754469
9.920335 -11.358755 -1.751591
9.845710 -11.413914 -1.750748
9.771339 -11.469239 -1.750005
9.713222 -11.543765 -1.752249
9.644156 -11.605490 -1.752603
9.571425 -11.662815 -1.752358
9.496354 -11.717217 -1.751744
9.407821 -11.754700 -1.748684
9.330589 -11.805968 -1.747761
9.262041 -11.868209 -1.748529
9.207269 -11.948466 -1.751997
9.166494 -12.047731 -1.758272
9.125049 -12.147213 -1.764586
9.087285 -12.252786 -1.771788
9.041963 -12.349329 -1.777693
8.977241 -12.420103 -1.779918
8.908147 -12.485160 -1.781374
8.823248 -12.528050 -1.779735
8.725391 -12.552001 -1.775499
8.642419 -12.596863 -1.774310
8.564304 -12.648681 -1.774173
8.499484 -12.720377 -1.776881
8.442955 -12.805173 -1.781456
8.383718 -12.886700 -1.785608
8.325044 -12.969923 -1.790028
8.262057 -13.047213 -1.793664
8.199791 -13.126392 -1.797598
8.145876 -13.219921 -1.803528
8.084675 -13.302675 -1.808016
8.029148 -13.395823 -1.813946
7.966405 -13.478004 -1.818421
7.886911 -13.532389 -1.819195
7.809708 -13.590931 -1.820588
7.719594 -13.626989 -1.819039
7.624346 -13.653525 -1.816302
7.536780 -13.693425 -1.815424
7.446092 -13.727383 -1.813834
7.370492 -13.789221 -1.815995
7.300126 -13.861495 -1.819580
7.227143 -13.929554 -1.822659
7.164257 -14.018091 -1.828457
7.091611 -14.088610 -1.831945
7.016224 -14.154439 -1.834872
6.940913 -14.221137 -1.837963
6.853987 -14.264423 -1.838087
6.773467 -14.321292 -1.840025
6.690021 -14.372371 -1.841279
6.604893 -14.420104 -1.842167
6.523496 -14.476353 -1.844205
6.430272 -14.506460 -1.842979
6.335337 -14.532330 -1.841292
6.241195 -14.559607 -1.839861
6.140422 -14.570767 -1.836476
6.050146 -14.606344 -1.836246
5.956077 -14.632550 -1.834912
5.865577 -14.667310 -1.834723
5.779940 -14.714404 -1.836143
5.687497 -14.744283 -1.835482
5.592206 -14.766453 -1.833936
5.492129 -14.775289 -1.830813
5.384535 -14.762564 -1.825108
5.281751 -14.761505 -1.820936
5.181788 -14.767164 -1.817678
5.084215 -14.778722 -1.815227
4.990942 -14.802236 -1.814319
4.889368 -14.800327 -1.810374
4.787826 -14.797175 -1.806361
4.686287 -14.792641 -1.802263
4.579855 -14.770875 -1.796154
4.481287 -14.772824 -1.793013
4.379030 -14.761180 -1.788305
4.278642 -14.754212 -1.784247
4.185164 -14.770069 -1.783025
4.085228 -14.762119 -1.779006
3.990465 -14.771701 -1.777176
3.898676 -14.791822 -1.776686
3.804721 -14.803326 -1.775230
3.715893 -14.834676 -1.776222
3.625300 -14.859250 -1.776467
3.531662 -14.871130 -1.775263
3.434802 -14.868512 -1.772401
3.333892 -14.846497 -1.767305
3.227767 -14.798060 -1.759149
3.124604 -14.759470 -1.752249
3.021726 -14.718663 -1.745170
2.927102 -14.715536 -1.742637
2.836058 -14.729605 -1.742210
2.746962 -14.753904 -1.743057
2.661326 -14.797977 -1.746302
2.571697 -14.821055 -1.747130
2.482606 -14.847903 -1.748467
2.394118 -14.879414 -1.750414
2.303780 -14.900325 -1.751178
2.216981 -14.945675 -1.754876
2.130063 -14.992984 -1.758864
2.041464 -15.031073 -1.761829
1.953532 -15.076769 -1.765747
1.862336 -15.099423 -1.767029
1.769492 -15.109196 -1.766868
1.676986 -15.121893 -1.767117
1.583624 -15.126697 -1.766509
1.492409 -15.152680 -1.768441
1.402544 -15.195559 -1.772407
1.311438 -15.228936 -1.775328
1.221203 -15.277136 -1.780040
1.128017 -15.292159 -1.780951
1.034040 -15.296945 -1.780736
0.938844 -15.281565 -1.778241
0.843589 -15.260435 -1.775147
0.749285 -15.252046 -1.773603
0.655549 -15.253165 -1.773232
0.561938 -15.256717 -1.773210
0.468778 -15.274994 -1.774967
0.375100 -15.279880 -1.775234
0.281517 -15.291677 -1.776370
0.187835 -15.305389 -1.777796
0.093930 -15.307951 -1.777993
0.000000 -15.332463 -1.780806
-0.094209 -15.353437 -1.783276
-0.188752 -15.380101 -1.786474
-0.283658 -15.407941 -1.789876
-0.378170 -15.404920 -1.789761
-0.472686 -15.402345 -1.789765
-0.566573 -15.382553 -1.787836
-0.660913 -15.377966 -1.787740
-0.756296 -15.394753 -1.790198
-0.854072 -15.450060 -1.797205
-0.953019 -15.512296 -1.805090
-1.053194 -15.580295 -1.813721
-1.152547 -15.624703 -1.819680
-1.250545 -15.644203 -1.822810
-1.347640 -15.649338 -1.824337
-1.442264 -15.625892 -1.822601
-1.538742 -15.623114 -1.823344
-1.633752 -15.605514 -1.822426
-1.729391 -15.594441 -1.822338
-1.826940 -15.599721 -1.824230
-1.921116 -15.576000 -1.822801
-2.017917 -15.573678 -1.823944
-2.117522 -15.591073 -1.827468
-2.216249 -15.599621 -1.830030
-2.322760 -15.658776 -1.838607
-2.429055 -15.710578 -1.846404
-2.532977 -15.742423 -1.851939
-2.640572 -15.792662 -1.859720
-2.743019 -15.808410 -1.863521
-2.844147 -15.814529 -1.866265
-2.946937 -15.827973 -1.869950
-3.043902 -15.809080 -1.869889
-3.146021 -15.816116 -1.872969
-3.245431 -15.808318 -1.874369
-3.344719 -15.799212 -1.875687
-3.447150 -15.803844 -1.878713
-3.546683 -15.794097 -1.880106
-3.651744 -15.807606 -1.884346
-3.755683 -15.814436 -1.887872
-3.857991 -15.812997 -1.890490
-3.965169 -15.829842 -1.895377
-4.067436 -15.825492 -1.897809
-4.168691 -15.816277 -1.899735
-4.272062 -15.814101 -1.902587
-4.368502 -15.785739 -1.902364
-4.464314 -15.755228 -1.901952
-4.562352 -15.732541 -1.902557
-4.652127 -15.681759 -1.899832
-4.754511 -15.673522 -1.902333
-4.851065 -15.645578 -1.902518
-4.937142 -15.584486 -1.898738
-5.034798 -15.560462 -1.899539
-5.114653 -15.482276 -1.893790
-5.200666 -15.424241 -1.890559
-5.297999 -15.400147 -1.891554
-5.381635 -15.336691 -1.887781
-5.482203 -15.321730 -1.890044
-5.567298 -15.263638 -1.887057
-5.641691 -15.177650 -1.880670
-5.726776 -15.121791 -1.878067
-5.780535 -14.985473 -1.865507
-5.865059 -14.931097 -1.863183
-5.966861 -14.920577 -1.866404
-6.056407 -14.879034 -1.865821
-6.172612 -14.902004 -1.873416
-6.259568 -14.853492 -1.872110
-6.324118 -14.753050 -1.864306
-6.390282 -14.658366 -1.857262
-6.448826 -14.548319 -1.848297
-6.510675 -14.447902 -1.840580
-6.593776 -14.395832 -1.839067
-6.673546 -14.336976 -1.836744
-6.759715 -14.292216 -1.836289
-6.857242 -14.271197 -1.838960
-6.934630 -14.208262 -1.836299
-7.031199 -14.184649 -1.838788
-7.118481 -14.141993 -1.838886
-7.221366 -14.129836 -1.843033
-7.355878 -14.177677 -1.855125
-7.479743 -14.202551 -1.864350
-7.620282 -14.256544 -1.877540
-7.732926 -14.256181 -1.883706
-7.823242 -14.213892 -1.884425
-7.919778 -14.182579 -1.886681
-7.994670 -14.112567 -1.883858
-8.079604 -14.060620 -1.883506
-8.174510 -14.025853 -1.885532
-8.279058 -14.006968 -1.889787
-8.408949 -14.029484 -1.899751
-8.537298 -14.047428 -1.909238
-8.667015 -14.065675 -1.918910
-8.788924 -14.069486 -1.926751
-8.890496 -14.039627 -1.930096
-8.982778 -13.994633 -1.931452
-9.067561 -13.937842 -1.931256
-9.130794 -13.848398 -1.926590
-9.213784 -13.789403 -1.926211
-9.302678 -13.739191 -1.927134
-9.394335 -13.692827 -1.928680
-9.517079 -13.690892 -1.936597
-9.624916 -13.666331 -1.941440
-9.756322 -13.673914 -1.950985
-9.901206 -13.698418 -1.963112
-10.021158 -13.686693 -1.970207
-10.171778 -13.715055 -1.983237
-10.313079 -13.728713 -1.994325
-10.443988 -13.726771 -2.003314
-10.601690 -13.758035 -2.017333
-10.731600 -13.751275 -2.025959
-10.878409 -13.764419 -2.037691
-11.043415 -13.798310 -2.052702
-11.172489 -13.785341 -2.060932
-11.346744 -13.826048 -2.077387
-11.483617 -13.819043 -2.086883
-11.613869 -13.802605 -2.095123
-11.758992 -13.802272 -2.105985
-11.812367 -13.693816 -2.100456
-11.899515 -13.624910 -2.101047
-11.978648 -13.546841 -2.100303
-12.029874 -13.437709 -2.094788
-12.164550 -13.421513 -2.103859
-12.276852 -13.379508 -2.109044
-12.425128 -13.375418 -2.120377
-12.583060 -13.379842 -2.133278
-12.685449 -13.323944 -2.136736
-12.814831 -13.295519 -2.144747
-12.917211 -13.238202 -2.148246
-12.984998 -13.145334 -2.146065
-13.118256 -13.118256 -2.154745
-13.243387 -13.081856 -2.162073
-13.349372 -13.025685 -2.166287
-13.493672 -13.005820 -2.176712
-13.531741 -12.883288 -2.170060
-13.567284 -12.759339 -2.163164
-13.601071 -12.634749 -2.156149
-13.563955 -12.446098 -2.138118
-13.607138 -12.332791 -2.132957
-13.613609 -12.187345 -2.122209
-13.624059 -12.046928 -2.112275
-13.624314 -11.898994 -2.100955
-13.475789 -11.624295 -2.067013
-13.388285 -11.406291 -2.042818
-13.342155 -11.226435 -2.025230
-13.283995 -11.038993 -2.006083
-13.213135 -10.843739 -1.985296
-13.183898 -10.685043 -1.971015
-13.123587 -10.503403 -1.952327
-12.838994 -10.147019 -1.900691
-12.748919 -9.949354 -1.878283
-12.268695 -9.454032 -1.798952
-12.329525 -9.380896 -1.799397
-2.287051 -1.718044 -0.332232
-1.387635 -1.029140 -0.200656
-1.162606 -0.851240 -0.167358
-13.075532 -9.450985 -1.873847
-13.238270 -9.445490 -1.888827
-13.251363 -9.332663 -1.882489
-13.170061 -9.155029 -1.862924
-13.393328 -9.188855 -1.886495
-13.553111 -9.176685 -1.901034
-13.741228 -9.181595 -1.919482
-13.897391 -9.163097 -1.933405
-14.072322 -9.155050 -1.949890
-14.123635 -9.065581 -1.949256
-14.097081 -8.926878 -1.937995
-14.152857 -8.841003 -1.938168
-14.081470 -8.676747 -1.921065
-14.093195 -8.565113 -1.915458
-14.149177 -8.480690 -1.915958
-14.179209 -8.380864 -1.913026
-14.307932 -8.338911 -1.923453
-14.417390 -8.284613 -1.931298
-14.353312 -8.131051 -1.915994
-14.455432 -8.072144 -1.922978
-14.560673 -8.014108 -1.930400
-14.738854 -7.994740 -1.947483
-15.018273 -8.027434 -1.977857
-15.187435 -7.998430 -1.993635
-15.371778 -7.975420 -2.011371
-15.471018 -7.906807 -2.017970
-15.520873 -7.812551 -2.018182
-15.591458 -7.728541 -2.021156
-15.700600 -7.662995 -2.029171
-15.900368 -7.640051 -2.048892
-16.061449 -7.596499 -2.063603
-16.186556 -7.534484 -2.073698
-16.278594 -7.456144 -2.079589
-16.359989 -7.372321 -2.084169
-16.448057 -7.290922 -2.089650
-16.556009 -7.217555 -2.097699
-16.681571 -7.150808 -2.108009
-16.722599 -7.047249 -2.107689
-16.852548 -6.980554 -2.118630
-16.936788 -6.894001 -2.123862
-16.998218 -6.797727 -2.126295
-17.125050 -6.726862 -2.136957
-17.053576 -6.578290 -2.122961
-17.053209 -6.458224 -2.117942
-17.131128 -6.367819 -2.122727
-17.169013 -6.262269 -2.122620
-17.328772 -6.200334 -2.137627
-17.385830 -6.100676 -2.140008
-17.449827 -6.003135 -2.143311
-17.557287 -5.919876 -2.152007
-17.652618 -5.831637 -2.159266
-17.805115 -5.761085 -2.173554
-17.951881 -5.687129 -2.187169
-18.093101 -5.609943 -2.200140
-18.183629 -5.515944 -2.206991
-18.232221 -5.408743 -2.208819
-18.306638 -5.308827 -2.213846
-18.353032 -5.200413 -2.215556
-18.360337 -5.080990 -2.212633
-18.407585 -4.972672 -2.214608
-18.400512 -4.849817 -2.210135
-18.369777 -4.721363 -2.202922
-18.416088 -4.612990 -2.205040
-18.417663 -4.493467 -2.201886
-18.376931 -4.364235 -2.193773
-18.377745 -4.245476 -2.190719
-18.261542 -4.100766 -2.173827
-18.104397 -3.948948 -2.152196
-17.850202 -3.778917 -2.119182
-17.486422 -3.589944 -2.073339
-17.343498 -3.449836 -2.053844
-17.258090 -3.322896 -2.041277
-17.337904 -3.228065 -2.048336
-17.508039 -3.148715 -2.066115
-17.582148 -3.050792 -2.072612
-17.690866 -2.957956 -2.083250
-17.700224 -2.847990 -2.082254
-17.721470 -2.739965 -2.082737
-17.824300 -2.643985 -2.092876
-17.918903 -2.545751 -2.102110
-17.997420 -2.444343 -2.109522
-18.094142 -2.344500 -2.119133
-18.058585 -2.227314 -2.113328
-17.984081 -2.106181 -2.103057
-17.926936 -1.988060 -2.094909
-17.835710 -1.867232 -2.082870
-17.821656 -1.755280 -2.079932
-17.894884 -1.651691 -2.087256
-17.951631 -1.545902 -2.092729
-18.003849 -1.439167 -2.097748
-18.133795 -1.337629 -2.111893
-18.190701 -1.229652 -2.117601
-18.265246 -1.122150 -2.125438
-18.410352 -1.017715 -2.141556
-18.566204 -0.912099 -2.158994
-18.670185 -0.802405 -2.170472
-18.794205 -0.692232 -2.184355
-18.792202 -0.576718 -2.183669
-18.731540 -0.459834 -2.176252
-18.789379 -0.345910 -2.182684
-18.799455 -0.230716 -2.183649
-18.896210 -0.115947 -2.194763
-18.787692 0.000000 -2.327645
-18.810132 0.115419 -2.330469
-18.785996 0.230550 -2.327610
-18.808322 0.346258 -2.330595
-18.796582 0.461430 -2.329447
-18.875413 0.579272 -2.339613
-19.019639 0.700535 -2.357979
-19.152109 0.823117 -2.374983
-19.267303 0.946542 -2.389943
-19.277802 1.065668 -2.392012
-19.220788 1.180855 -2.385791
-19.179898 1.296520 -2.381659
-19.152569 1.412778 -2.379297
-19.124431 1.528742 -2.376922
-19.126921 1.647112 -2.378442
-19.099851 1.762909 -2.376377
-19.028188 1.874113 -2.368847
-18.967299 1.985699 -2.362739
-18.859795 2.091512 -2.350902
-18.778723 2.199244 -2.342434
-18.686453 2.304754 -2.332644
-18.704591 2.423597 -2.336721
-18.675906 2.536492 -2.335038
-18.652386 2.649957 -2.334086
-18.640450 2.765050 -2.334672
-18.619912 2.878875 -2.334268
-18.634080 2.998249 -2.338306
-18.603814 3.110603 -2.336859
-18.657616 3.237403 -2.346069
-18.669207 3.357544 -2.350073
-18.677766 3.477527 -2.353792
-18.673568 3.595434 -2.355998
-18.562007 3.692213 -2.344737
-18.553911 3.809098 -2.346623
-18.571028 3.931517 -2.351795
-18.606723 4.058516 -2.359424
-18.696160 4.198363 -2.373987
-18.749712 4.331405 -2.384117
-18.826817 4.471076 -2.397365
-18.894481 4.609799 -2.409537
-18.954926 4.747962 -2.420915
-18.979507 4.878075 -2.427832
-19.024174 5.014195 -2.437435
-19.093031 5.157840 -2.450266
-19.170781 5.305270 -2.464376
-19.288596 5.465509 -2.483785
-19.420774 5.631920 -2.505208
-19.511537 5.788263 -2.521450
-19.578753 5.939150 -2.534798
-19.603657 6.078306 -2.542803
-19.579355 6.202711 -2.544540
-19.589954 6.338594 -2.550924
-19.581463 6.468842 -2.554939
-19.567739 6.597749 -2.558382
-19.542606 6.723098 -2.560442
-19.531999 6.853765 -2.564513
-19.530775 6.988223 -2.569934
-19.530191 7.123491 -2.575561
-19.507817 7.251259 -2.578429
-19.480763 7.377564 -2.580788
-19.459249 7.506261 -2.583991
-19.441917 7.636947 -2.587863
-19.408771 7.761727 -2.589742
-19.377533 7.887489 -2.591983
-19.333963 8.008390 -2.592679
-19.246416 8.110837 -2.587564
-19.151771 8.209696 -2.581564
-19.004280 8.284874 -2.568487
-18.887590 8.372293 -2.559611
-18.749593 8.449151 -2.547887
-18.693202 8.562116 -2.547316
-18.723907 8.715565 -2.558739
-18.698631 8.843794 -2.562653
-18.640087 8.956473 -2.562113
-18.491314 9.025060 -2.549227
-18.291896 9.067123 -2.529358
-18.040612 9.080881 -2.502269
-17.888108 9.142115 -2.488850
-17.694497 9.180528 -2.469703
-17.513033 9.223201 -2.452228
-17.458186 9.331595 -2.452520
-17.422311 9.450317 -2.455580
-17.460712 9.610272 -2.469257
-17.469458 9.755224 -2.478912
-17.402440 9.858361 -2.477939
-17.378340 9.986053 -2.483186
-17.336106 10.103784 -2.485963
-17.265149 10.204862 -2.484720
-17.193495 10.305384 -2.483462
-17.113518 10.400708 -2.481081
-17.028676 10.492762 -2.478068
-16.987101 10.611499 -2.481447
-16.964790 10.742835 -2.487770
-16.925480 10.864010 -2.491734
-16.847702 10.960632 -2.490138
-16.777049 11.061769 -2.489681
-16.684711 11.148368 -2.486082
-16.554593 11.208960 -2.476896
-16.432623 11.274046 -2.468951
-16.346137 11.362844 -2.466386
-16.268545 11.457602 -2.465239
-16.232908 11.582160 -2.470562
-16.197516 11.707552 -2.476062
-16.133051 11.812338 -2.477241
-16.059138 11.910269 -2.477067
-15.985889 12.008682 -2.477087
-15.983548 12.161053 -2.488240
-15.900760 12.252834 -2.487010
-16.045241 12.521829 -2.521578
-15.557512 12.295540 -2.456739
-15.483720 12.392325 -2.457048
-1.937977 1.570656 -0.309053
-18.860182 16.884247 -3.136167
-18.986035 17.207940 -3.174592
-18.361620 16.848369 -3.087414
-18.064614 16.781168 -3.054730
-17.729188 16.673399 -3.015253
-17.174138 16.351139 -2.937862
-16.977968 16.364144 -2.921426
-17.047039 16.633694 -2.950818
-16.930337 16.723835 -2.948325
-17.115279 17.115279 -2.998763
-17.275892 17.489210 -3.045649
-17.312661 17.742879 -3.071267
-17.274752 17.922732 -3.083993
-17.149658 18.012849 -3.081335
-17.023599 18.101564 -3.078584
-16.903810 18.196636 -3.077055
-16.829093 18.340613 -3.083881
-16.758245 18.489874 -3.091631
-16.665253 18.615559 -3.095490
-16.518814 18.681386 -3.089523
-16.344366 18.714252 -3.078315
-16.166919 18.741952 -3.066496
-16.051637 18.840822 -3.066500
-16.135309 19.176150 -3.104905
-16.351972 19.677477 -3.169771
-16.480657 20.081739 -3.218542
-16.448069 20.294693 -3.236436
-16.594321 20.733948 -3.290185
-17.686789 22.379043 -3.533950
-17.909247 22.948580 -3.606467
-17.946706 23.289817 -3.642719
-17.767677 23.352461 -3.635397
-17.464109 23.248124 -3.602404
-17.159398 23.136769 -3.568767
-16.829716 22.985683 -3.529467
-16.477861 22.797286 -3.484948
-16.111577 22.581085 -3.436721
-15.801035 22.435746 -3.399781
-15.560865 22.385242 -3.377595
-15.369026 22.401312 -3.365728
-15.194137 22.440328 -3.357519
-15.014111 22.470205 -3.348142
-14.832355 22.495781 -3.338329
-14.628206 22.485167 -3.323371
-14.441057 22.498307 -3.312154
-14.308896 22.596217 -3.313580
-14.238263 22.792900 -3.329548
-14.180984 23.014282 -3.349113
-14.114180 23.223734 -3.366927
-14.040471 23.425110 -3.383568
-13.959214 23.616970 -3.398845
-13.914989 23.875385 -3.423683
-13.898419 24.186878 -3.456056
-13.890194 24.519621 -3.491357
-13.902575 24.896450 -3.532801
-13.905359 25.264370 -3.572834
-13.917193 25.657305 -3.616257
-13.935252 26.071023 -3.662448
-13.906682 26.406035 -3.697453
-13.844809 26.684404 -3.724466
-13.725713 26.856700 -3.736689
-13.571380 26.961701 -3.739642
-13.415185 27.063620 -3.742290
-13.240707 27.128693 -3.739983
-13.075801 27.213176 -3.740499
-12.904386 27.284031 -3.739284
-12.727953 27.343839 -3.736707
-12.540143 27.378211 -3.730819
-12.344622 27.394070 -3.722588
-12.159897 27.432288 -3.717572
-12.000900 27.528298 -3.720534
-11.857699 27.661918 -3.728689
-11.737751 27.852814 -3.744642
-11.619375 28.051653 -3.761719
-11.493482 28.236529 -3.776982
-11.379159 28.454428 -3.796718
-11.252917 28.647350 -3.813175
-11.133197 28.861728 -3.832545
-10.995356 29.033696 -3.846349
-10.841146 29.165568 -3.854934
-10.691733 29.313098 -3.865690
-10.519577 29.400247 -3.868597
-10.344452 29.479828 -3.870644
-10.168942 29.558937 -3.872765
-9.981657 29.603801 -3.870546
-9.748230 29.508313 -3.850169
-9.500021 29.360607 -3.823218
-9.278235 29.287494 -3.806213
-9.056468 29.208777 -3.788690
-8.894054 29.319768 -3.795936
-8.703273 29.337681 -3.791270
-8.428785 29.065315 -3.749318
-8.139069 28.723988 -3.698776
-7.784149 28.128301 -3.615851
-7.247380 26.827983 -3.442916
-6.166691 23.396816 -2.997672
-5.534223 21.532434 -2.754399
-5.244915 20.938873 -2.674304
-5.043187 20.670833 -2.636068
-4.851495 20.428685 -2.601343
-4.625228 20.021607 -2.545845
-4.339264 19.323622 -2.453661
-4.050350 18.569284 -2.354677
-3.834667 18.113543 -2.293860
-3.691610 17.981633 -2.274244
-3.543999 17.816884 -2.250614
-3.414969 17.736288 -2.237744
-3.186527 17.114804 -2.156826
-3.087481 17.167556 -2.161045
-1.853524 10.682119 -1.343204
-0.570405 3.411465 -0.428520
-1.121269 6.968674 -0.874467
-2.708551 17.518292 -2.196164
-2.596762 17.505949 -2.192578
-2.513884 17.694601 -2.214233
-2.534201 18.659036 -2.332929
-2.538138 19.588587 -2.447156
-2.468475 20.013863 -2.498346
-2.365065 20.194626 -2.519052
-2.261205 20.389967 -2.541640
-2.149663 20.533475 -2.557836
-2.037693 20.689041 -2.575609
-1.923957 20.844689 -2.593467
-1.802136 20.927121 -2.602298
-1.681898 21.040400 -2.615052
-1.558529 21.128456 -2.624758
-1.432648 21.193692 -2.631721
-1.310487 21.330812 -2.647699
-1.183197 21.403898 -2.655820
-1.053981 21.454268 -2.661217
-0.925193 21.527180 -2.669507
-0.794961 21.583334 -2.675815
-0.664293 21.645785 -2.683002
-0.531917 21.667881 -2.685286
-0.399543 21.702691 -2.689245
-0.266735 21.734452 -2.692927
-0.133297 21.723773 -2.691452
0.000000 21.721818 -2.691159
0.132919 21.662076 -2.683808
0.265067 21.598555 -2.676089
0.396813 21.554379 -2.670867
0.526886 21.462958 -2.659890
0.656868 21.403859 -2.653015
0.785867 21.336424 -2.645204
0.914254 21.272655 -2.637944
1.045022 21.271910 -2.638597
1.175117 21.257734 -2.637684
1.307739 21.286073 -2.642146
1.440027 21.302851 -2.645276
1.569403 21.275879 -2.643072
1.698271 21.245218 -2.640508
1.826738 21.212816 -2.637825
1.953845 21.168500 -2.633755
2.080450 21.123164 -2.629653
2.201302 21.026722 -2.619279
2.314423 20.869849 -2.601458
2.423993 20.697795 -2.581816
2.526616 20.485265 -2.557191
2.626876 20.273442 -2.532714
2.690833 19.812303 -2.477121
2.694775 18.967846 -2.373562
2.731507 18.414327 -2.306350
2.814898 18.206121 -2.282393
2.902779 18.040737 -2.263850
2.998907 17.935787 -2.252947
3.101469 17.874204 -2.247560
3.223719 17.925092 -2.256404
3.360761 18.050618 -2.274758
3.481051 18.079495 -2.281046
3.593759 18.067044 -2.282214
3.734360 18.189867 -2.300580
3.858527 18.226253 -2.308133
3.989280 18.289300 -2.319173
4.162706 18.537370 -2.353825
4.360360 18.875053 -2.400055
4.556040 19.184584 -2.442922
4.712740 19.316410 -2.463344
4.893692 19.536714 -2.495221
5.050494 19.650353 -2.513646
5.189645 19.689840 -2.522723
5.333230 19.742282 -2.533587
5.455107 19.712225 -2.533977
5.575319 19.676133 -2.533688
5.680203 19.587268 -2.526685
5.742075 19.355842 -2.501330
5.790919 19.090101 -2.471534
5.891269 19.000426 -2.464558
5.959256 18.810869 -2.444667
5.948446 18.384168 -2.393911
6.142025 18.592175 -2.425859
5.839097 17.317711 -2.264202
6.076920 17.664304 -2.314349
4.672508 12.810428 -1.689386
6.410953 17.247170 -2.279630
6.056424 15.992240 -2.118633
6.223682 16.134290 -2.142470
0.381069 0.970114 -0.129129
8.505143 21.267738 -2.837787
8.606073 21.142907 -2.828123
8.442796 20.382713 -2.733316
8.544568 20.275626 -2.725935
8.608169 20.081338 -2.706865
8.628540 19.792600 -2.675031
8.696692 19.619422 -2.658787
8.740832 19.396864 -2.635845
8.661297 18.909738 -2.576823
8.527363 18.319586 -2.503486
8.431581 17.827080 -2.443206
8.429551 17.543465 -2.411380
8.486731 17.388340 -2.397171
8.583508 17.316258 -2.394449
8.683783 17.251713 -2.392847
8.793690 17.206355 -2.393995
8.919033 17.190493 -2.399357
9.032008 17.149994 -2.401394
9.130403 17.081783 -2.399643
9.193243 16.948377 -2.388781
9.259239 16.822928 -2.379063
9.323752 16.696787 -2.369270
9.392595 16.580249 -2.360867
9.487216 16.510233 -2.359142
9.569255 16.418961 -2.354446
9.650094 16.326562 -2.349643
9.721027 16.218554 -2.342639
9.769729 16.075294 -2.330562
9.818549 15.934497 -2.318840
9.876105 15.809868 -2.309479
9.904835 15.641444 -2.293711
9.958269 15.514390 -2.283996
10.027266 15.413014 -2.278087
10.059668 15.257193 -2.264137
10.085335 15.093770 -2.249026
10.105918 14.925502 -2.233152
10.168155 14.820718 -2.226767
10.214601 14.694320 -2.217151
10.367161 14.720238 -2.230618
10.350275 14.506365 -2.207791
10.448417 14.455489 -2.209764
10.195061 13.924207 -2.138071
10.782055 14.537919 -2.242424
9.935737 13.058765 -2.032925
10.906953 14.154182 -2.213831
10.832545 13.880624 -2.181399
11.135894 14.090215 -2.225033
11.368188 14.204101 -2.253991
11.487984 14.174619 -2.260455
11.642581 14.186526 -2.273704
11.799341 14.198976 -2.287260
11.928835 14.176929 -2.295456
12.042538 14.135089 -2.300603
12.155535 14.091643 -2.305628
12.270130 14.049264 -2.310969
12.380496 14.001298 -2.315531
12.481730 13.942445 -2.318420
12.575542 13.874972 -2.319988
12.668929 13.806800 -2.321544
12.773034 13.749933 -2.325116
12.877831 13.693279 -2.328854
12.978862 13.632125 -2.331954
13.083979 13.574762 -2.335831
13.186995 13.514690 -2.339374
13.277304 13.441249 -2.340719
13.359313 13.359313 -2.340682
13.427845 13.264063 -2.338385
13.491060 13.163938 -2.335283
13.574604 13.083827 -2.335804
13.673355 13.018116 -2.339007
13.766352 12.946553 -2.341282
13.857584 12.873037 -2.343320
13.937778 12.789112 -2.343567
14.042827 12.727676 -2.348055
14.156457 12.673320 -2.354007
14.222421 12.576023 -2.352100
14.300040 12.489149 -2.352219
14.395712 12.417827 -2.355378
14.501921 12.355065 -2.360308
14.593799 12.279600 -2.362954
14.646033 12.170846 -2.359275
14.698958 12.063123 -2.355832
14.750923 11.955056 -2.352360
14.791302 11.838151 -2.347171
14.827887 11.718897 -2.341522
14.830905 11.574152 -2.330740
14.861669 11.452130 -2.324487
14.929971 11.359441 -2.324225
15.000584 11.268515 -2.324410
15.101404 11.199964 -2.329339
15.189157 11.121235 -2.332305
15.285884 11.048626 -2.336704
15.393329 10.983122 -2.342783
15.484765 10.905602 -2.346470
15.565472 10.820173 -2.348595
15.620875 10.717124 -2.346988
15.678328 10.615649 -2.345789
15.745937 10.521099 -2.346202
15.819927 10.430701 -2.347646
15.891639 10.338645 -2.348829
15.961213 10.245073 -2.349777
16.025296 10.147907 -2.350000
16.080578 10.045212 -2.349024
16.126486 9.936849 -2.346779
16.161459 9.822096 -2.343054
16.204775 9.712768 -2.340649
16.261311 9.611526 -2.340253
16.321530 9.512471 -2.340475
16.389858 9.418045 -2.341942
16.443423 9.315084 -2.341385
16.486364 9.206249 -2.339411
16.542486 9.104886 -2.339403
16.608739 9.009015 -2.340911
16.662613 8.906352 -2.340758
16.729884 8.810758 -2.342569
16.788470 8.710450 -2.343245
16.847961 8.610525 -2.344130
16.899571 8.506529 -2.344004
16.931795 8.392934 -2.341287
16.940635 8.268219 -2.335450
16.947754 8.143315 -2.329499
16.948911 8.016238 -2.322853
16.941731 7.886002 -2.315194
16.947758 7.762644 -2.309465
16.956316 7.641045 -2.304198
16.964606 7.519893 -2.299012
16.977989 7.401517 -2.294627
17.000955 7.287716 -2.291644
17.032994 7.178056 -2.289983
17.070007 7.070629 -2.289083
17.111598 6.965156 -2.288886
17.148633 6.857879 -2.288168
17.144244 6.734402 -2.282026
17.136595 6.610314 -2.275566
17.130376 6.487448 -2.269412
17.157328 6.377558 -2.267755
17.221140 6.281282 -2.271052
17.276463 6.181617 -2.273303
17.339835 6.084536 -2.276687
17.413069 5.990489 -2.281433
17.452153 5.884427 -2.281780
17.462599 5.768863 -2.278475
17.455502 5.647963 -2.272984
17.432456 5.522576 -2.265528
17.412525 5.398924 -2.258590
17.408940 5.280944 -2.253879
17.404765 5.163271 -2.249195
17.414777 5.050192 -2.246442
17.414642 4.934516 -2.242476
17.384370 4.810903 -2.234735
17.359616 4.689571 -2.227812
17.329984 4.567658 -2.220371
17.317966 4.451029 -2.215290
17.334862 4.342157 -2.214001
17.351404 4.233326 -2.212755
17.362563 4.123339 -2.210910
17.375196 4.013876 -2.209341
17.369944 3.900551 -2.205588
17.384692 3.791966 -2.204465
17.401507 3.683927 -2.203689
17.418722 3.576045 -2.203049
17.463752 3.473756 -2.206007
17.485958 3.366770 -2.206161
17.512809 3.260629 -2.206983
17.530970 3.152839 -2.206792
17.504244 3.037274 -2.201040
17.500216 2.926079 -2.198235
17.500743 2.815893 -2.196089
17.503256 2.706226 -2.194279
17.539360 2.601718 -2.196763
17.549909 2.493327 -2.196127
17.556011 2.384392 -2.195018
17.563672 2.275765 -2.194189
17.560403 2.165869 -2.192079
17.579026 2.058743 -2.192785
17.611215 1.953047 -2.195264
17.652177 1.848018 -2.198915
17.689438 1.742258 -2.202184
17.710126 1.634638 -2.203469
17.707533 1.524882 -2.201941
17.687374 1.413869 -2.198314
17.662108 1.302835 -2.194139
17.652983 1.193303 -2.192054
17.663409 1.085175 -2.192481
17.682933 0.977504 -2.194118
17.717467 0.870403 -2.197699
17.744863 0.762637 -2.200476
17.759909 0.654136 -2.201802
17.768519 0.545302 -2.202414
17.758459 0.435946 -2.200794
17.751077 0.326795 -2.199589
17.767576 0.218052 -2.201426
17.781542 0.109108 -2.203032
17.819622 -0.000000 -2.207708
17.849004 -0.109521 -2.211390
17.850073 -0.219064 -2.211647
17.861521 -0.328828 -2.213274
17.854910 -0.438313 -2.212747
17.878035 -0.548663 -2.215988
17.923150 -0.660149 -2.222040
17.951354 -0.771511 -2.226082
17.948967 -0.881776 -2.226415
17.945400 -0.992013 -2.226686
17.939358 -1.102129 -2.226733
17.929907 -1.212023 -2.226441
17.926931 -1.322370 -2.227037
17.943703 -1.434359 -2.230172
17.930095 -1.544047 -2.229617
17.916907 -1.653724 -2.229197
17.894071 -1.762412 -2.227659
17.828676 -1.866496 -2.220902
17.752846 -1.968754 -2.212919
17.663582 -2.068646 -2.203333
17.562456 -2.166122 -2.192335
17.457226 -2.261973 -2.180891
17.408069 -2.364299 -2.176521
17.401126 -2.472190 -2.177508
17.420637 -2.584107 -2.181893
17.440220 -2.696480 -2.186377
17.435348 -2.805371 -2.187883
17.414215 -2.911699 -2.187432
17.378555 -3.015465 -2.185236
17.367982 -3.123526 -2.186275
17.354402 -3.231136 -2.187020
17.334589 -3.337626 -2.187063
17.325387 -3.446234 -2.188529
17.310182 -3.553762 -2.189321
17.274355 -3.657009 -2.187587
17.225276 -3.757194 -2.184250
17.163750 -3.854249 -2.179406
17.093049 -3.948696 -2.173464
17.029037 -4.044132 -2.168439
16.975851 -4.141700 -2.164862
16.923281 -4.239061 -2.161434
16.902885 -4.344346 -2.162193
16.885335 -4.450462 -2.163401
16.874457 -4.558509 -2.165550
16.860401 -4.665901 -2.167380
16.822545 -4.766742 -2.166232
16.779125 -4.865856 -2.164445
16.740228 -4.966131 -2.163318
16.712337 -5.069632 -2.163693
16.701247 -5.178385 -2.166330
16.681537 -5.284686 -2.167938
16.624336 -5.379028 -2.164753
16.485293 -5.446005 -2.150959
16.187511 -5.458022 -2.116435
15.849287 -5.452513 -2.076549
15.179586 -5.326507 -1.993050
13.319849 -4.765918 -1.752677
2.745535 -1.001414 -0.362070
1.099114 -0.408552 -0.145274
2.394498 -0.906821 -0.317220
4.977468 -1.920021 -0.660957
16.069951 -6.772209 -2.160508
16.407947 -7.033515 -2.211710
15.562957 -6.784637 -2.103381
14.687146 -6.510364 -1.990374
14.599016 -6.578772 -1.983864
5.437995 -2.490785 -0.741034
15.379246 -7.623350 -2.126604
15.542480 -7.823427 -2.155773
15.026787 -7.679773 -2.090742
14.719877 -7.637191 -2.054522
14.460202 -7.615435 -2.024762
13.621937 -7.281077 -1.913605
12.200757 -6.618010 -1.719630
4.264719 -2.415934 -0.607255
11.026789 -6.336284 -1.575615
13.515279 -7.876939 -1.938064
14.500434 -8.570730 -2.086835
14.135276 -8.472358 -2.041727
13.992544 -8.503942 -2.028609
13.980595 -8.614590 -2.034502
13.947389 -8.712652 -2.037411
13.865991 -8.780542 -2.033352
13.792993 -8.853350 -2.030576
13.757997 -8.950559 -2.033471
13.712431 -9.041146 -2.034897
13.631549 -9.108310 -2.031150
13.553312 -9.176821 -2.027845
13.466652 -9.239161 -2.023323
13.375483 -9.297826 -2.018159
13.286462 -9.357382 -2.013352
13.193747 -9.413723 -2.008018
13.114269 -9.478984 -2.004736
13.058944 -9.561531 -2.005210
13.020419 -9.656601 -2.008355
12.994930 -9.761858 -2.013624
12.933833 -9.840683 -2.013476
12.873019 -9.919713 -2.013446
12.814906 -10.000851 -2.013917
12.755591 -10.081103 -2.014278
12.681846 -10.149857 -2.012430
12.586254 -10.200675 -2.007156
12.466090 -10.230655 -1.997966
12.339229 -10.253892 -1.987680
12.221142 -10.283185 -1.978785
12.115501 -10.321929 -1.971898
12.027543 -10.375030 -1.967906
11.922396 -10.412598 -1.961119
11.778796 -10.415274 -1.947974
11.589070 -10.374912 -1.927089
11.418742 -10.349344 -1.909290
11.358287 -10.422207 -1.909839
11.329652 -10.524708 -1.915846
11.290107 -10.617771 -1.920140
11.237399 -10.698893 -1.922305
11.183366 -10.779041 -1.924340
11.136571 -10.866539 -1.927725
11.068314 -10.933312 -1.927486
10.982165 -10.982165 -1.924182
10.876576 -11.010878 -1.917484
10.754283 -11.021525 -1.907810
10.626175 -11.024765 -1.897049
10.479548 -11.007013 -1.882894
10.304139 -10.956616 -1.863422
10.102079 -10.874700 -1.838914
9.873447 -10.760240 -1.809280
9.616662 -10.610352 -1.774122
9.356214 -10.451156 -1.737871
9.098851 -10.290034 -1.701763
9.004689 -10.310344 -1.695952
8.625829 -9.999733 -1.636123
7.439630 -8.732364 -1.421265
3.096661 -3.680255 -0.595888
1.477938 -1.778507 -0.286493
4.219822 -5.141868 -0.824098
9.135036 -11.271399 -1.797473
9.540590 -11.920590 -1.891629
9.283373 -11.746225 -1.854886
9.036961 -11.579796 -1.819814
8.791699 -11.409172 -1.784488
8.546831 -11.233294 -1.748744
4.492059 -5.979803 -0.926598
1.188496 -1.602502 -0.247180
7.799998 -10.653078 -1.635787
9.425655 -13.040488 -1.993458
9.022247 -12.645077 -1.924513
8.875249 -12.601885 -1.909615
8.812120 -12.676766 -1.912733
8.755108 -12.761115 -1.917318
8.668632 -12.802764 -1.915548
8.559672 -12.810454 -1.908804
8.487903 -12.873345 -1.910379
8.415317 -12.935271 -1.911870
8.358476 -13.022008 -1.917073
8.292964 -13.096022 -1.920442
8.208673 -13.140610 -1.919558
8.118463 -13.175431 -1.917332
8.029825 -13.212424 -1.915509
7.965644 -13.289874 -1.919615
7.915983 -13.392698 -1.927415
7.843486 -13.457880 -1.929833
7.758734 -13.502224 -1.929329
7.661586 -13.524591 -1.925771
7.549866 -13.520147 -1.918506
7.449100 -13.534121 -1.913967
7.359394 -13.567549 -1.912272
7.284815 -13.628931 -1.914587
7.222731 -13.714535 -1.920351
7.170378 -13.820144 -1.928942
7.089789 -13.872383 -1.930125
6.982725 -13.872291 -1.924114
6.856485 -13.832185 -1.912680
6.700106 -13.727750 -1.892519
6.466192 -13.457348 -1.849736
5.981420 -12.646650 -1.733227
5.418468 -11.640655 -1.590769
5.620300 -12.270496 -1.672096
5.967081 -13.241606 -1.799406
5.992316 -13.518448 -1.831995
5.733341 -13.151441 -1.777458
5.114253 -11.930649 -1.608192
3.312900 -7.861267 -1.056900
1.305125 -3.150851 -0.422528
0.682709 -1.677240 -0.224351
0.598298 -1.496089 -0.199625
0.720734 -1.834825 -0.244229
1.128255 -2.924890 -0.388396
