11.447056 -13.106846 -2.426317
11.215249 -13.001591 -2.394047
11.006029 -12.918473 -2.366263
10.893619 -12.946617 -2.359130
10.817576 -13.017549 -2.359916
10.816776 -13.180280 -2.377340
10.811658 -13.340124 -2.394160
10.764927 -13.450351 -2.402042
10.804951 -13.671473 -2.429646
10.770858 -13.801579 -2.440977
10.722655 -13.915014 -2.449356
10.663018 -14.014647 -2.455331
10.508551 -13.988924 -2.439482
10.407200 -14.032485 -2.435896
10.284218 -14.045975 -2.427238
10.160117 -14.056624 -2.418259
10.112266 -14.172786 -2.427523
10.032810 -14.245495 -2.429387
9.951858 -14.316348 -2.431010
9.881726 -14.403231 -2.435422
9.759527 -14.413914 -2.427057
9.664159 -14.463436 -2.425365
9.617964 -14.587274 -2.436189
9.586136 -14.734949 -2.450982
9.599410 -14.955308 -2.477792
9.582650 -15.132658 -2.497386
9.530570 -15.256729 -2.508164
9.441704 -15.322916 -2.509473
9.298059 -15.299199 -2.496198
9.146415 -15.259872 -2.480578
9.008188 -15.240551 -2.468406
8.898645 -15.268325 -2.464014
8.818063 -15.345733 -2.467728
8.702501 -15.362062 -2.461721
8.584042 -15.372129 -2.454847
8.462405 -15.375175 -2.446995
8.312242 -15.324191 -2.430718
8.211488 -15.362614 -2.428775
8.105679 -15.391079 -2.425366
8.016205 -15.450386 -2.426915
7.978531 -15.611358 -2.444465
7.928475 -15.751175 -2.458693
7.892967 -15.923169 -2.477934
7.833574 -16.050097 -2.490160
7.741749 -16.112020 -2.492350
7.660905 -16.197622 -2.498273
7.558336 -16.237798 -2.497270
7.455181 -16.276492 -2.496138
7.382702 -16.383025 -2.505482
7.294432 -16.455975 -2.509746
7.209248 -16.536953 -2.515302
7.121539 -16.613293 -2.520219
7.004655 -16.621528 -2.514901
6.897639 -16.652374 -2.513117
6.802396 -16.711737 -2.515730
6.708124 -16.774159 -2.518883
6.629266 -16.876593 -2.528109
6.541845 -16.959094 -2.534407
6.435148 -16.992276 -2.533417
6.326011 -17.018654 -2.531515
6.195966 -16.987232 -2.521138
6.085526 -17.007905 -2.518617
5.986325 -17.059950 -2.520837
5.884454 -17.104847 -2.522088
5.813670 -17.242301 -2.537048
5.714716 -17.298691 -2.540138
5.604818 -17.322159 -2.538486
5.488644 -17.325346 -2.533970
5.336616 -17.211569 -2.512493
5.239737 -17.273098 -2.516734
5.162055 -17.400663 -2.530658
5.105171 -17.604363 -2.555679
5.233976 -18.471482 -2.676849
5.201823 -18.796972 -2.719341
4.916126 -18.198267 -2.628314
5.277438 -20.022933 -2.887113
-9.647233 -19.462202 -3.028672
-9.421781 -18.717864 -2.921781
-9.357823 -18.310179 -2.867052
-10.894882 -17.681274 -2.895708
-11.250444 -18.009938 -2.960784
-10.808723 -17.068839 -2.816920
-10.581435 -16.485246 -2.731272
-8.409602 -12.926487 -2.150166
-12.398140 -16.295157 -2.854871
-12.023106 -15.602637 -2.746416
-12.282876 -15.739052 -2.783642
-12.506748 -15.824753 -2.812319
-12.279112 -15.342265 -2.739912
-12.905623 -15.923794 -2.857853
-6.888466 -7.790274 -1.449919
-12.426207 -13.880425 -2.597555
-12.394723 -13.675469 -2.573384
-12.415186 -13.530267 -2.560348
-12.740651 -13.715073 -2.610063
-12.798988 -13.609443 -2.604858
-13.046853 -13.703538 -2.638140
-13.209002 -13.704476 -2.653874
-13.339348 -13.670829 -2.663159
-12.905725 -13.065082 -2.560534
-13.460116 -13.460116 -2.654091
-13.131170 -12.349197 -2.513316
-13.411375 -12.458530 -2.552267
-13.106670 -12.026499 -2.480190
-13.252360 -12.011239 -2.493766
-13.685008 -12.251263 -2.560985
-13.743167 -12.152247 -2.557866
-13.703268 -11.967949 -2.536725
-13.277755 -11.453471 -2.444899
-14.735621 -12.554167 -2.699108
-13.535010 -10.832684 -2.417161
-14.777994 -11.679465 -2.626293
-12.800523 -8.553036 -2.146512
-13.861802 -9.139632 -2.315029
-13.805967 -8.981767 -2.296457
-13.709334 -8.799652 -2.271359
-13.900937 -8.802671 -2.294112
-13.729148 -8.576321 -2.257034
-13.665537 -8.420457 -2.238040
-13.682778 -8.315682 -2.232465
-13.808367 -8.276417 -2.244628
-14.114786 -8.342786 -2.286074
-14.630204 -8.526737 -2.361034
-14.415880 -8.283746 -2.318200
-14.030754 -7.948324 -2.248383
-15.830468 -8.839986 -2.528042
-18.718065 0.000000 -2.755699
-18.929478 0.116151 -2.786876
-19.175340 0.235329 -2.823232
-19.379223 0.356769 -2.853519
-19.515808 0.479086 -2.874009
-18.554742 0.569431 -2.732940
-17.697642 0.651843 -2.607237
-3.143231 0.135089 -0.463178
-17.472109 2.046222 -2.589847
-17.913244 2.209388 -2.657195
-17.711900 2.294972 -2.629368
-17.508808 2.377981 -2.601335
-17.416166 2.474327 -2.589778
-17.236449 2.556786 -2.565339
-17.028543 2.632829 -2.536753
-16.800154 2.703168 -2.505153
-16.665473 2.786508 -2.487573
-16.618727 2.883623 -2.483190
-16.467861 2.961645 -2.463316
-16.377915 3.049329 -2.452614
-16.338343 3.145807 -2.449533
-16.167866 3.215988 -2.426887
-16.068593 3.298865 -2.414978
-15.998241 3.386854 -2.407483
-15.961467 3.481531 -2.405119
-16.018131 3.596992 -2.416937
-16.072584 3.712957 -2.428545
-16.100660 3.823656 -2.436287
-16.137416 3.937142 -2.445458
-16.119840 4.037810 -2.446503
-16.208157 4.165788 -2.463740
-16.290625 4.293715 -2.480234
-16.340820 4.414351 -2.491953
-16.344274 4.523070 -2.496665
-16.226154 4.597752 -2.482884
-16.198420 4.697455 -2.483004
-16.097692 4.775517 -2.472009
-15.893272 4.821171 -2.445115
-15.788591 4.895408 -2.433585
-15.686847 4.969570 -2.422557
-15.606660 5.049745 -2.414913
-15.510231 5.123888 -2.404812
-15.405793 5.194446 -2.393516
-15.405671 5.299899 -2.398504
-15.438249 5.417271 -2.408706
-15.508162 5.548909 -2.424881
-15.391353 5.613881 -2.411957
-15.210079 5.653745 -2.388941
-15.093521 5.716070 -2.376099
-15.187729 5.858554 -2.396543
-15.435130 6.063047 -2.441406
-15.581986 6.231364 -2.470636
-16.227301 6.605209 -2.579333
-15.672884 6.491921 -2.497493
-14.701925 6.195695 -2.348784
-2.163572 0.943204 -0.347476
-6.219452 2.848718 -1.007114
-13.963759 6.499821 -2.267563
-14.111818 6.674393 -2.298214
-13.899674 6.678727 -2.270296
-13.782765 6.726957 -2.257900
-13.540193 6.711748 -2.224866
-13.443047 6.766661 -2.215685
-13.260101 6.776869 -2.192344
-13.083697 6.788283 -2.170024
-12.832674 6.758300 -2.135228
-12.593535 6.731385 -2.102271
-12.742654 6.911949 -2.134203
-12.995622 7.152713 -2.183881
-13.247466 7.397596 -2.233789
-13.259970 7.511680 -2.243627
-13.488186 7.750668 -2.290246
-13.012886 7.584136 -2.217401
-12.623441 7.461301 -2.158800
-13.719936 8.688053 -2.390790
-13.882938 8.911084 -2.428676
-13.354260 8.687899 -2.345471
-13.004694 8.574507 -2.293273
-12.743749 8.515101 -2.256429
-12.348449 8.361020 -2.195479
-12.151138 8.336617 -2.169452
-11.806120 8.206900 -2.116804
-11.511302 8.107174 -2.072824
-11.447657 8.167890 -2.070349
-11.425611 8.258423 -2.075487
-11.435028 8.372528 -2.086491
-11.468823 8.505859 -2.102141
-11.462925 8.611008 -2.110705
-11.381322 8.659458 -2.105423
-11.366970 8.759178 -2.112671
-11.291572 8.812029 -2.108667
-11.216359 8.864605 -2.104740
-11.151940 8.925405 -2.102889
-11.134764 9.024298 -2.110052
-11.204150 9.195008 -2.133852
-11.262710 9.359306 -2.155902
-11.303973 9.511455 -2.174931
-11.248918 9.583634 -2.175612
-11.209259 9.669174 -2.179375
-11.139125 9.728518 -2.177304
-11.133776 9.844921 -2.188025
-11.244143 10.066122 -2.221811
-11.394869 10.327707 -2.264073
-11.427886 10.486070 -2.283375
-11.402302 10.592197 -2.291206
-10.759800 10.119044 -2.174536
-10.175417 9.687803 -2.068408
-7.355197 7.537973 -1.550514
-11.188593 11.608280 -2.373584
-10.725489 11.265333 -2.289961
-10.711494 11.389765 -2.301851
-10.779114 11.603515 -2.331639
-10.812883 11.784052 -2.354540
-10.763337 11.875512 -2.359574
-10.671943 11.920862 -2.355529
-10.520643 11.897960 -2.338204
-10.367012 11.870200 -2.320203
-10.231360 11.860989 -2.306089
-10.086755 11.839463 -2.289827
-9.958585 11.835368 -2.277174
-9.827583 11.826221 -2.263769
-9.746173 11.875746 -2.261759
-9.570297 11.808452 -2.237716
-9.449726 11.807058 -2.226422
-9.494480 12.013338 -2.254292
-9.478071 12.145025 -2.268047
-9.646577 12.518566 -2.326707
-9.725368 12.782272 -2.364584
-9.266567 12.335602 -2.271394
-9.352376 12.610219 -2.311349
-9.297170 14.100736 -2.486551
-9.253329 14.223388 -2.498120
-8.916541 13.891440 -2.430164
-8.825798 13.937458 -2.428694
-8.771125 14.040994 -2.437312
-8.678752 14.084723 -2.435613
-8.588151 14.131103 -2.434475
-8.478406 14.145366 -2.427924
-8.362280 14.147768 -2.419483
-8.268144 14.186509 -2.417387
-8.188923 14.250864 -2.419745
-8.123535 14.340044 -2.426379
-7.940631 14.219921 -2.397764
-7.702143 13.993871 -2.351634
-7.509993 13.845189 -2.318861
-7.382767 13.812186 -2.305703
-7.290553 13.843317 -2.303389
-7.221639 13.918946 -2.308556
-7.144283 13.979009 -2.311204
-7.021839 13.949998 -2.299240
-6.925255 13.970919 -2.295642
-6.802350 13.937236 -2.283205
-6.704428 13.953163 -2.279032
-6.624503 14.006335 -2.281035
-6.548092 14.067460 -2.284403
-6.599419 14.408151 -2.333108
-6.736283 14.948551 -2.413876
-6.891559 15.547107 -2.503655
-6.973350 15.995838 -2.568978
-7.003706 16.338409 -2.617045
-7.005140 16.622679 -2.655644
-6.990704 16.877052 -2.689379
-6.963611 17.107801 -2.719289
-6.932801 17.335980 -2.748745
-6.918037 17.611739 -2.785685
-6.900196 17.888086 -2.822646
-6.864691 18.126501 -2.853566
-6.812202 18.326637 -2.878438
-6.620783 18.151937 -2.844565
-6.459192 18.052232 -2.822676
-5.802968 16.537416 -2.580201
-5.629194 16.362862 -2.547529
-0.432633 1.283112 -0.199350
-0.325638 1.006410 -0.155728
-3.643375 11.500606 -1.776066
-4.937427 15.924110 -2.454474
-4.598592 15.159525 -2.332231
-3.535160 11.916597 -1.829948
-0.330306 1.139006 -0.174595
-0.666388 2.466800 -0.376184
-3.088588 11.718299 -1.784101
-2.180432 8.483577 -1.289556
-1.896855 15.379297 -2.281317
-1.883151 16.079691 -2.383453
-1.763291 15.900125 -2.355188
-1.647769 15.739407 -2.329840
-1.538626 15.621937 -2.311011
-1.428697 15.478905 -2.288511
-1.332693 15.475766 -2.286795
-1.237646 15.482847 -2.286676
-1.144725 15.518661 -2.290885
-1.052114 15.564316 -2.296629
-0.960867 15.640044 -2.306889
-0.868265 15.706815 -2.315909
-0.773311 15.741107 -2.320222
-0.680600 15.836043 -2.333555
-0.586653 15.927718 -2.346490
-0.491756 16.023717 -2.360144
-0.394692 16.077984 -2.367735
-0.294347 15.988576 -2.354258
-0.194176 15.822120 -2.329529
-0.096059 15.654970 -2.304789
0.000000 15.532494 -2.286715
0.095863 15.623049 -2.300089
0.192877 15.716221 -2.313937
0.291185 15.816814 -2.328967
0.391919 15.964995 -2.351096
0.496003 16.162105 -2.380527
0.602044 16.345588 -2.408051
0.706643 16.442007 -2.422849
0.805860 16.403653 -2.417880
0.896160 16.211426 -2.390312
0.985557 16.041914 -2.366165
1.080813 15.988875 -2.359275
1.183003 16.037577 -2.367488
1.290048 16.138381 -2.383493
1.388287 16.121337 -2.382189
1.478838 16.022144 -2.368828
1.565231 15.892053 -2.350970
1.654552 15.804201 -2.339431
1.745813 15.742520 -2.331843
1.832137 15.644098 -2.318886
1.917609 15.547565 -2.306278
1.994919 15.396181 -2.285594
2.071327 15.250949 -2.265879
2.146251 15.106922 -2.246394
2.222512 14.982957 -2.229947
2.305776 14.913235 -2.221634
2.395360 14.887133 -2.219893
2.489287 14.887866 -2.222238
2.588663 14.918831 -2.229189
2.693360 14.976093 -2.240173
2.799415 15.035631 -2.251605
2.891829 15.019263 -2.251769
2.965991 14.911042 -2.238230
3.013477 14.678483 -2.206056
3.077112 14.535138 -2.187309
3.188412 14.617634 -2.202626
3.306149 14.722950 -2.221510
3.381338 14.637077 -2.211642
3.439449 14.482837 -2.191484
3.511111 14.391218 -2.180840
3.586935 14.319848 -2.173319
3.651244 14.206181 -2.159427
3.707667 14.067124 -2.141707
3.745446 13.864702 -2.114348
3.791429 13.700463 -2.092810
3.850342 13.588430 -2.079266
3.918505 13.512338 -2.071263
4.001823 13.489661 -2.071512
4.089329 13.480712 -2.073952
4.190861 13.516299 -2.083344
4.297903 13.566676 -2.095134
4.397608 13.591176 -2.103045
4.482836 13.569737 -2.103945
4.544421 13.477936 -2.093995
4.585256 13.328356 -2.075088
4.608415 13.133156 -2.049061
4.642021 12.973579 -2.028570
4.751560 13.027164 -2.041469
4.913743 13.219277 -2.076260
5.007542 13.222622 -2.081572
5.178774 13.425467 -2.118468
5.161417 13.139785 -2.078347
5.254435 13.139104 -2.083300
1.358321 0.780527 -0.230638
13.381166 7.580337 -2.264134
14.083782 7.864609 -2.374808
5.762802 3.171812 -0.968424
14.190295 7.142794 -2.338846
14.134434 7.006307 -2.322510
13.708367 6.690646 -2.245712
13.790426 6.626234 -2.252452
13.983053 6.613492 -2.277244
14.024891 6.528277 -2.277491
14.130986 6.472467 -2.288227
14.256728 6.424526 -2.302162
14.435970 6.399025 -2.324721
14.604066 6.366610 -2.345456
14.830907 6.357493 -2.375577
14.887600 6.273942 -2.378447
15.416168 6.385586 -2.456585
15.367298 6.255151 -2.442636
15.793557 6.315973 -2.504182
5.304408 2.083616 -0.839009
1.010793 -0.354687 -0.157706
1.543237 -0.552179 -0.241303
11.877544 -13.941425 -2.696359
11.396687 -13.544493 -2.606016
11.253368 -13.541968 -2.592196
11.270074 -13.732625 -2.615405
10.987146 -13.556653 -2.569003
12.226242 -15.276207 -2.880590
2.184706 -7.202010 -1.108000
0.302218 -1.018740 -0.156441
5.140727 -19.504245 -2.969505
4.738456 -18.436282 -2.802429
4.308937 -17.202243 -2.610779
4.323530 -17.721132 -2.685454
4.225375 -17.792220 -2.692247
4.071820 -17.626024 -2.663268
3.915911 -17.438342 -2.631229
3.805757 -17.447920 -2.629101
3.673691 -17.353154 -2.611376
3.549892 -17.291332 -2.598746
3.450790 -17.348293 -2.604075
3.338202 -17.337582 -2.599344
3.230967 -17.353492 -2.598708
3.135039 -17.431996 -2.607534
3.027326 -17.446908 -2.606937
2.923581 -17.485274 -2.609940
2.821774 -17.537293 -2.615071
2.713943 -17.553169 -2.614906
2.610154 -17.596228 -2.618886
2.506173 -17.640326 -2.623111
2.397280 -17.650905 -2.622447
2.286082 -17.643293 -2.619183
2.178182 -17.660234 -2.619664
2.067998 -17.658052 -2.617409
1.961817 -17.690296 -2.620355
1.854883 -17.717749 -2.622686
1.743791 -17.705007 -2.619167
1.635877 -17.723549 -2.620376
1.525283 -17.712196 -2.617264
1.415163 -17.703567 -2.614657
1.301977 -17.650471 -2.605586
1.188707 -17.584992 -2.594794
1.078065 -17.547676 -2.588263
0.967897 -17.509141 -2.581655
0.862503 -17.556642 -2.587829
0.757711 -17.630245 -2.597944
0.652281 -17.709527 -2.608988
0.545872 -17.787070 -2.619869
0.437829 -17.835167 -2.626508
0.328939 -17.867561 -2.630932
0.218991 -17.844074 -2.627226
0.109238 -17.802791 -2.621000
0.000000 -17.778205 -2.617331
-0.108926 -17.752018 -2.613525
-0.217843 -17.750538 -2.613455
-0.327065 -17.765780 -2.615945
-0.436097 -17.764610 -2.616118
-0.545259 -17.767105 -2.616928
-0.654057 -17.757772 -2.616096
-0.762463 -17.740814 -2.614237
-0.871941 -17.748770 -2.616149
-0.980958 -17.745424 -2.616494
-1.089741 -17.737726 -2.616295
-1.199232 -17.740686 -2.617768
-1.307654 -17.727435 -2.616947
-1.416698 -17.722764 -2.617492
-1.527081 -17.733076 -2.620349
-1.637162 -17.737469 -2.622434
-1.748199 -17.749764 -2.625788
-1.861343 -17.779456 -2.631820
-1.976740 -17.824866 -2.640288
-2.092576 -17.867917 -2.648517
-2.206957 -17.893531 -2.654271
-2.321182 -17.914187 -2.659398
-2.429905 -17.891120 -2.658137
-2.533211 -17.830637 -2.651410
-2.646644 -17.842223 -2.655498
-2.757148 -17.832611 -2.656535
-2.870750 -17.841679 -2.660460
-2.990242 -17.883963 -2.669451
-3.099126 -17.860702 -2.668767
-3.207601 -17.835470 -2.667887
-3.314783 -17.803669 -2.666123
-3.412687 -17.724437 -2.657343
-3.516325 -17.677762 -2.653530
-3.618297 -17.624527 -2.648822
-3.723332 -17.587639 -2.646662
-3.836795 -17.590218 -2.650543
-3.943209 -17.559908 -2.649572
-4.054544 -17.551240 -2.651968
-4.166639 -17.544892 -2.654822
-4.269386 -17.499208 -2.651823
-4.380330 -17.487256 -2.654035
-4.491677 -17.476118 -2.656478
-4.603783 -17.467045 -2.659343
-4.722927 -17.483092 -2.666148
-4.835735 -17.474102 -2.669251
-4.949765 -17.468458 -2.672978
-5.062601 -17.457569 -2.676015
-5.164310 -17.408265 -2.673265
-5.267002 -17.362979 -2.671223
-5.367426 -17.310938 -2.668233
-5.466967 -17.256921 -2.665028
-5.568748 -17.210681 -2.663113
-5.662844 -17.141673 -2.657762
-5.759780 -17.082472 -2.654013
-5.858750 -17.030132 -2.651416
-5.963383 -16.994570 -2.651527
-6.072198 -16.970656 -2.653559
-6.180767 -16.945562 -2.655515
-6.290545 -16.923241 -2.658016
-6.411327 -16.929375 -2.665108
-6.528352 -16.924117 -2.670536
-6.641205 -16.906987 -2.674213
-6.747424 -16.872433 -2.675246
-6.834819 -16.791393 -2.668996
-6.926577 -16.722235 -2.664709
-7.013457 -16.642414 -2.658797
-7.092119 -16.544661 -2.650082
-7.163315 -16.431589 -2.638961
-7.233032 -16.317459 -2.627710
-7.293613 -16.185328 -2.613590
-7.383185 -16.119306 -2.610195
-7.484087 -16.078286 -2.610940
-7.575031 -16.016058 -2.608333
-7.664605 -15.951469 -2.605425
-7.753082 -15.885177 -2.602318
-7.894224 -15.925706 -2.616844
-8.051923 -15.996424 -2.636533
-8.257105 -16.156435 -2.671206
-8.449810 -16.286115 -2.701168
-8.537613 -16.211236 -2.697387
-7.985113 -14.939096 -2.493821
-9.227674 -17.011852 -2.849230
-9.502668 -16.774554 -2.838305
-9.349862 -16.271202 -2.762792
-9.117195 -15.643313 -2.665627
-9.234258 -15.623028 -2.671775
-9.367030 -15.627945 -2.682395
-9.332613 -15.356054 -2.645507
-9.366242 -15.200449 -2.628551
-9.475074 -15.167890 -2.632925
-9.435730 -14.900645 -2.596536
-9.484777 -14.776718 -2.585034
-9.633259 -14.807383 -2.600690
-9.723699 -14.747639 -2.600627
-9.928188 -14.858583 -2.630884
-10.125914 -14.955033 -2.658913
-10.325597 -15.050200 -2.687047
-10.581225 -15.221729 -2.729213
-10.835143 -15.384721 -2.770305
-11.056454 -15.496107 -2.802526
-11.214646 -15.515575 -2.818438
-11.249551 -15.364407 -2.803465
-11.148198 -15.031605 -2.755170
-11.016187 -14.664687 -2.700255
-10.918320 -14.350196 -2.654633
-10.932207 -14.186954 -2.636795
-10.928191 -14.003183 -2.615052
-10.863334 -13.745345 -2.579302
-10.865780 -13.576363 -2.560055
-10.945180 -13.504873 -2.559190
-11.170541 -13.611343 -2.592307
-11.396740 -13.714498 -2.625222
-11.658560 -13.855719 -2.665897
-11.924861 -13.996964 -2.707101
-12.101537 -14.029044 -2.727615
-12.240267 -14.015071 -2.739450
-12.179894 -13.774434 -2.706971
-12.100793 -13.516928 -2.670907
-12.034724 -13.278272 -2.638291
-11.903173 -12.972267 -2.591954
-11.862853 -12.770139 -2.566063
-11.887490 -12.640227 -2.554567
-11.980688 -12.583710 -2.557954
-11.982711 -12.432186 -2.542051
-11.802630 -12.095924 -2.488056
-11.454743 -11.596183 -2.399674
-11.307196 -11.307196 -2.354186
-11.600988 -11.459489 -2.400669
-12.020375 -11.728912 -2.472516
-12.402426 -11.954027 -2.535966
-12.687518 -12.079522 -2.579055
-12.975309 -12.202618 -2.622287
-13.209966 -12.271431 -2.654443
-13.376583 -12.274167 -2.672739
-13.480041 -12.217597 -2.678381
-13.454731 -12.045112 -2.658617
-13.381973 -11.832865 -2.629844
-13.252641 -11.574387 -2.590422
-13.126043 -11.322603 -2.552048
-13.048843 -11.117099 -2.523728
-13.104096 -11.026125 -2.521282
-13.085077 -10.873692 -2.504738
-13.024869 -10.689234 -2.480611
-13.095645 -10.613517 -2.481641
-13.124606 -10.504219 -2.474869
-13.206894 -10.437781 -2.478262
-13.270462 -10.356370 -2.478219
-13.188559 -10.162862 -2.451232
-13.089468 -9.959098 -2.421412
-12.887177 -9.680913 -2.372957
-12.728679 -9.440231 -2.333062
-12.664388 -9.272644 -2.310806
-12.684510 -9.168355 -2.304169
-12.743513 -9.092481 -2.304709
-12.880044 -9.071150 -2.319291
-13.036775 -9.062376 -2.337456
-13.081536 -8.974942 -2.335564
-13.107020 -8.874641 -2.330348
-13.067129 -8.731176 -2.313687
-13.017484 -8.582940 -2.295528
-13.095305 -8.519430 -2.299990
-13.261825 -8.512408 -2.320019
-13.532865 -8.569592 -2.358191
-13.959669 -8.720323 -2.423195
-14.459044 -8.909402 -2.500343
-14.323393 -8.705015 -2.467602
-13.901153 -8.332030 -2.386007
-15.037725 -8.888305 -2.571680
-16.919527 -9.177594 -2.833766
-16.357102 -8.743053 -2.730532
-16.324565 -8.597297 -2.716243
-17.018249 -8.829667 -2.822597
-17.439486 -8.912836 -2.883338
-17.383051 -8.749893 -2.865077
-17.361575 -8.605971 -2.852780
-17.309175 -8.448093 -2.835598
-17.232924 -8.280338 -2.814730
-17.226398 -8.147479 -2.805446
-17.160309 -7.987745 -2.786649
-17.188311 -7.872825 -2.783299
-17.293921 -7.793180 -2.792604
-17.295292 -7.666476 -2.785177
-17.332118 -7.555898 -2.783589
-17.353024 -7.438636 -2.779564
-17.275506 -7.280255 -2.759940
-17.236960 -7.139782 -2.746731
-17.199374 -7.000885 -2.733844
-17.236416 -6.892984 -2.732958
-17.241316 -6.772532 -2.727095
-17.271823 -6.662477 -2.725402
-17.299099 -6.551345 -2.723312
-17.217461 -6.399910 -2.704227
-17.175509 -6.264638 -2.691550
-17.130752 -6.129481 -2.678592
-17.054715 -5.984488 -2.660911
-17.213713 -5.921906 -2.679998
-17.398311 -5.866273 -2.703083
-17.540809 -5.794701 -2.719647
-17.672338 -5.718123 -2.734548
-17.686083 -5.602925 -2.731304
-17.673987 -5.479993 -2.724192
-17.690711 -5.366419 -2.721643
-17.725629 -5.258458 -2.722000
-17.795261 -5.160530 -2.727779
-17.899344 -5.071858 -2.738911
-17.957847 -4.969606 -2.743146
-17.996459 -4.861609 -2.744435
-17.979758 -4.738919 -2.737403
-17.855489 -4.589182 -2.714145
-17.823039 -4.464439 -2.704997
-17.858777 -4.357112 -2.706312
-17.976339 -4.269101 -2.720107
-18.191846 -4.202531 -2.748763
-18.327616 -4.115604 -2.765410
-18.433322 -4.020694 -2.777585
-18.485549 -3.913421 -2.781784
-18.431027 -3.783870 -2.770033
-18.425935 -3.665146 -2.765835
-18.397561 -3.542292 -2.758262
-18.404517 -3.426652 -2.756101
-18.428312 -3.314220 -2.756567
-18.394746 -3.191791 -2.748564
-18.402093 -3.076875 -2.746789
-18.350669 -2.952648 -2.736358
-18.247059 -2.821227 -2.718276
-18.161710 -2.694035 -2.703048
-18.081274 -2.568819 -2.688680
-18.005634 -2.445458 -2.675150
-18.018581 -2.334709 -2.674895
-18.033869 -2.224266 -2.675088
-18.013732 -2.109653 -2.670131
-18.003051 -1.996501 -2.666681
-17.937072 -1.877844 -2.655151
-17.962910 -1.769192 -2.657319
-18.063410 -1.667246 -2.670623
-18.136704 -1.561840 -2.679992
-18.259478 -1.459601 -2.696760
-18.348125 -1.353439 -2.708575
-18.368757 -1.241688 -2.710444
-18.473870 -1.134967 -2.724876
-18.440709 -1.019393 -2.719011
-18.354240 -0.901686 -2.705394
-18.250762 -0.784379 -2.689382
-18.188935 -0.669938 -2.679615
-18.184229 -0.558060 -2.678367
-18.191100 -0.446566 -2.678925
-18.417169 -0.339057 -2.711860
-18.515823 -0.227235 -2.726129
-18.516743 -0.113619 -2.726111
-18.330579 0.000000 -2.841819
-18.357341 0.112641 -2.846021
-18.413505 0.225979 -2.854890
-18.390981 0.338575 -2.851666
-18.392833 0.451519 -2.852329
-18.410186 0.564995 -2.855504
-18.371195 0.676651 -2.850047
-18.358613 0.789015 -2.848792
-18.250486 0.896589 -2.832814
-18.148985 1.003267 -2.817962
-18.072413 1.110303 -2.807077
-18.080645 1.222212 -2.809468
-18.111467 1.335982 -2.815478
-18.085967 1.445731 -2.812840
-18.337419 1.579124 -2.853401
-17.694152 1.633164 -2.754812
-17.198566 1.693911 -2.679222
-9.060274 0.948526 -1.412305
-19.229646 2.852449 -3.013823
-18.477459 2.856850 -2.898627
-16.861272 2.713002 -2.647651
-16.711930 2.794275 -2.626843
-16.745284 2.905582 -2.634839
-16.540594 2.974726 -2.605454
-16.329671 3.040346 -2.575120
-16.155833 3.110666 -2.550668
-15.952279 3.173106 -2.521558
-15.757095 3.234915 -2.493796
-15.670403 3.317450 -2.483251
-15.594219 3.401426 -2.474439
-15.653727 3.515162 -2.487257
-15.783938 3.646276 -2.511454
-15.898473 3.775640 -2.533317
-16.030220 3.910989 -2.558086
-16.069701 4.025251 -2.568279
-16.114299 4.141665 -2.579420
-16.161571 4.259700 -2.591122
-16.138779 4.359771 -2.591708
-16.117069 4.460194 -2.592568
-16.009676 4.536412 -2.579722
-15.869543 4.602082 -2.561643
-15.793358 4.685234 -2.553938
-15.711712 4.766096 -2.545416
-15.652802 4.853305 -2.540649
-15.614964 4.946798 -2.539387
-15.571590 5.038398 -2.537313
-15.594460 5.151714 -2.546142
-15.628118 5.269408 -2.556869
-15.593981 5.364682 -2.556621
-15.565962 5.462086 -2.557474
-15.518422 5.552580 -2.555213
-15.439211 5.631337 -2.547812
-15.346511 5.704458 -2.538243
-15.270846 5.783225 -2.531550
-15.183300 5.856845 -2.522947
-15.075165 5.921650 -2.510969
-14.954962 5.980612 -2.497013
-14.771791 6.012754 -2.472542
-14.542102 6.023536 -2.440237
-14.294831 6.024137 -2.404901
-14.142502 6.062397 -2.385487
-13.995062 6.101116 -2.366888
-13.908164 6.165065 -2.358545
-13.940883 6.282197 -2.370586
-13.932512 6.381560 -2.375776
-13.906710 6.473266 -2.378104
-13.867808 6.558985 -2.378289
-13.736643 6.600392 -2.362696
-13.605319 6.640351 -2.347072
-13.392189 6.638383 -2.317288
-13.144516 6.616393 -2.281415
-12.925685 6.605958 -2.250427
-12.605176 6.540009 -2.201570
-12.425396 6.543808 -2.177142
-12.245481 6.545346 -2.152614
-12.101166 6.563989 -2.134285
-12.091822 6.655267 -2.139799
-12.071138 6.740716 -2.143418
-12.117685 6.864584 -2.159122
-12.196734 7.008566 -2.180828
-12.227639 7.126480 -2.194132
-12.222206 7.224144 -2.201069
-12.117591 7.263005 -2.190214
-12.001046 7.293613 -2.177197
-11.942917 7.359010 -2.174802
-11.859295 7.408262 -2.167812
-11.796331 7.469944 -2.164640
-11.826251 7.590952 -2.178637
-11.781322 7.664591 -2.178983
-11.781093 7.767739 -2.187714
-11.773960 7.867109 -2.195312
-11.478525 7.772003 -2.149079
-11.306100 7.756856 -2.125667
-11.008273 7.652285 -2.078462
-10.742283 7.565569 -2.036967
-10.726145 7.653092 -2.042773
-10.734750 7.759070 -2.053440
-10.795825 7.904514 -2.074362
-10.888916 8.075771 -2.101731
-10.952530 8.227597 -2.123714
-11.020521 8.384943 -2.146833
-11.091803 8.547140 -2.170895
-11.088722 8.653723 -2.180643
-11.152069 8.813794 -2.203694
-11.167352 8.937739 -2.217510
-11.218735 9.092354 -2.238749
-11.218145 9.206494 -2.249862
-11.227001 9.329632 -2.263077
-11.298011 9.506439 -2.289105
-11.276238 9.606910 -2.296594
-11.250674 9.704898 -2.303473
-11.254199 9.829019 -2.316499
-11.290880 9.983839 -2.336615
-11.358544 10.168538 -2.363485
-11.406381 10.338141 -2.386594
-11.377527 10.439861 -2.393915
-11.288348 10.486339 -2.388644
-11.160988 10.496341 -2.375278
-10.962374 10.437048 -2.346594
-10.952101 10.556138 -2.358216
-11.019567 10.752372 -2.386904
-11.074491 10.939414 -2.413295
-11.121885 11.121885 -2.438448
-11.152706 11.290417 -2.460349
-11.120892 11.397245 -2.468712
-11.032100 11.445917 -2.464545
-10.942769 11.493550 -2.460297
-10.871224 11.559609 -2.460113
-10.818265 11.645660 -2.464252
-10.804836 11.775282 -2.477605
-10.764154 11.876414 -2.484940
-10.653510 11.900272 -2.476208
-10.476143 11.847635 -2.451833
-10.265108 11.753520 -2.419276
-10.024691 11.621403 -2.379376
-9.818275 11.524331 -2.347122
-9.618996 11.431780 -2.316209
-9.467691 11.393138 -2.296566
-9.396821 11.450059 -2.296374
-9.251486 11.415082 -2.277931
-9.127649 11.404636 -2.264627
-9.042696 11.441697 -2.260926
-9.103414 11.664947 -2.293960
-9.296156 12.063817 -2.361138
-9.361206 12.303646 -2.396790
-9.502871 12.650168 -2.452888
-9.385342 12.654668 -2.442548
-9.158554 12.508566 -2.403456
-8.783551 12.152131 -2.324569
-8.675940 12.159711 -2.315793
-5.920800 8.406890 -1.594126
-8.427792 12.123887 -2.289100
-9.057392 13.201712 -2.482063
-8.924250 13.180288 -2.467693
-8.704938 13.027860 -2.429108
-8.515763 12.915599 -2.398389
-8.430361 12.958395 -2.396685
-8.426007 13.127218 -2.418301
-8.452693 13.348261 -2.449421
-8.446378 13.521133 -2.471586
-8.398554 13.629991 -2.482018
-8.315922 13.683172 -2.482364
-8.198345 13.678112 -2.472273
-8.079139 13.668734 -2.461571
-7.963265 13.663397 -2.451765
-7.819632 13.608201 -2.433205
-7.685119 13.566133 -2.417205
-7.501980 13.434393 -2.385485
-7.282709 13.231810 -2.341535
-7.111801 13.111094 -2.312407
-6.976582 13.052266 -2.294438
-6.899889 13.101522 -2.295611
-6.879994 13.260460 -2.316019
-6.860748 13.424225 -2.337225
-6.833954 13.576735 -2.356432
-6.798690 13.715589 -2.373247
-6.713384 13.754955 -2.372886
-6.627122 13.792275 -2.372265
-6.537159 13.821662 -2.370376
-6.398588 13.746276 -2.350670
-6.285726 13.723283 -2.340098
-6.204514 13.768497 -2.341272
-6.234121 14.063951 -2.384963
-6.360668 14.590435 -2.467579
-6.475467 15.106120 -2.548026
-6.570104 15.590370 -2.622857
-6.640001 16.030380 -2.689977
-6.657359 16.355418 -2.737614
-6.674116 16.689121 -2.786563
-6.687032 17.023653 -2.835515
-6.698374 17.364883 -2.885451
-6.722022 17.749779 -2.942499
-6.714471 18.063715 -2.987656
-6.642458 18.211363 -3.005278
-6.613256 18.482813 -3.043320
-6.153954 17.537662 -2.881423
-5.974960 17.367930 -2.847459
-1.191712 3.534404 -0.578253
-3.484190 16.971299 -2.685962
-3.433096 17.259339 -2.728164
-3.230528 16.778358 -2.648952
-3.076579 16.524278 -2.605809
-2.971284 16.521455 -2.602440
-2.860514 16.485550 -2.593970
-2.746846 16.428265 -2.582256
-2.635332 16.378555 -2.571852
-2.520574 16.302502 -2.557433
-2.392619 16.129724 -2.527978
-2.266961 15.956570 -2.498613
-2.151520 15.841397 -2.478464
-2.033100 15.690851 -2.452913
-1.920004 15.566982 -2.431661
-1.810085 15.455804 -2.412514
-1.700425 15.333249 -2.391711
-1.600061 15.283705 -2.382406
-1.500644 15.236293 -2.373536
-1.405578 15.228421 -2.370921
-1.315290 15.273669 -2.376665
-1.224043 15.312668 -2.381520
-1.132497 15.352888 -2.386649
-1.037295 15.345094 -2.384403
-0.937759 15.263917 -2.370851
-0.843947 15.266902 -2.370466
-0.752319 15.313810 -2.376987
-0.666144 15.499679 -2.405158
-0.584802 15.877468 -2.463178
-0.490661 15.988037 -2.479818
-0.392603 15.992885 -2.480149
-0.294631 16.004008 -2.481547
-0.194855 15.877401 -2.461684
-0.096374 15.706303 -2.435019
0.000000 15.564431 -2.412978
0.095231 15.520023 -2.406139
0.191794 15.628019 -2.423019
0.293825 15.960222 -2.474758
0.405747 16.528293 -2.563179
0.520812 16.970516 -2.632205
0.641100 17.405988 -2.700308
0.720262 16.758904 -2.600558
0.775155 15.778634 -2.449137
0.567975 10.274603 -1.595320
1.051567 11.392974 -1.773778
1.627592 16.525222 -2.574327
1.657531 15.832650 -2.467975
1.725147 15.556171 -2.426482
1.854113 15.831751 -2.471196
1.935994 15.696624 -2.451912
2.023821 15.619244 -2.441719
2.099259 15.456611 -2.418263
2.168283 15.262001 -2.389851
2.218165 14.953654 -2.343655
2.266878 14.661651 -2.300027
2.327099 14.462894 -2.271044
2.393083 14.312488 -2.249690
2.478851 14.285973 -2.247871
2.569213 14.285793 -2.250281
2.662695 14.301310 -2.255256
2.762085 14.345409 -2.264840
2.859858 14.377478 -2.272631
2.957159 14.404161 -2.279674
3.056441 14.437494 -2.287875
3.159782 14.486375 -2.298650
3.261434 14.523826 -2.307725
3.369862 14.587401 -2.321068
3.482628 14.664657 -2.336717
3.582929 14.685580 -2.343510
3.668564 14.645727 -2.340698
3.759733 14.628285 -2.341553
3.858176 14.638163 -2.346880
3.975591 14.716642 -2.363329
4.095047 14.797599 -2.380320
4.142639 14.619990 -2.355794
4.062124 14.007584 -2.261088
3.993041 13.460061 -2.176621
2.605224 8.588274 -1.391365
0.681482 2.197906 -0.356748
4.291407 13.546170 -2.202948
4.553081 14.071676 -2.292909
4.628516 14.010717 -2.287561
4.678630 13.875977 -2.270206
4.734853 13.763203 -2.256466
4.763136 13.574082 -2.230210
4.825786 13.487169 -2.220753
4.828983 13.239430 -2.184799
4.859051 13.072140 -2.162072
4.955640 13.085573 -2.169282
5.114264 13.258232 -2.203066
5.149092 13.108409 -2.183379
5.242862 13.110165 -2.188989
5.240750 12.875176 -2.155082
5.868824 14.168594 -2.377561
13.753846 7.791457 -2.450652
13.957174 7.133123 -2.430014
14.144987 7.119988 -2.455060
13.844654 6.862667 -2.395580
13.900938 6.784634 -2.398070
14.144456 6.796343 -2.432840
14.187322 6.710104 -2.433085
14.223858 6.620892 -2.432338
14.170735 6.490674 -2.416398
14.074167 6.342259 -2.393250
14.047121 6.226661 -2.382109
14.117244 6.154381 -2.387552
14.261657 6.113475 -2.405586
14.463951 6.095408 -2.433353
14.654717 6.070183 -2.459134
14.810894 6.028671 -2.479088
14.923997 5.968229 -2.491843
14.990708 5.888475 -2.496901
15.025155 5.795842 -2.496668
15.031793 5.692693 -2.491920
15.057799 5.597141 -2.490491
15.125064 5.516754 -2.495971
15.236389 5.451667 -2.508774
15.391513 5.400871 -2.528812
15.551789 5.350167 -2.549704
15.696005 5.292298 -2.567975
15.803024 5.220614 -2.580195
15.851656 5.129017 -2.582948
15.869435 5.027414 -2.580770
15.873477 4.921727 -2.576468
15.879019 4.816848 -2.572521
15.926311 4.724676 -2.575438
16.041701 4.652007 -2.589433
16.212280 4.593821 -2.612368
16.392406 4.536390 -2.636858
16.469171 4.449024 -2.644765
16.355417 4.310792 -2.622201
16.176308 4.157602 -2.589346
15.755774 3.946616 -2.518107
15.543197 3.792167 -2.480367
7.691270 1.826557 -1.225553
1.890600 0.436751 -0.300822
10.122150 2.273005 -1.608332
17.445743 3.805282 -2.768233
17.008958 3.600824 -2.695368
16.227856 3.331562 -2.568301
16.141866 3.210817 -2.551526
16.652164 3.206230 -2.629029
16.951168 3.156060 -2.673128
17.102402 3.075763 -2.693950
17.081808 2.963975 -2.687790
16.846879 2.816839 -2.648055
16.621181 2.674371 -2.609951
16.584350 2.564151 -2.601648
16.658292 2.471024 -2.610820
16.777175 2.383545 -2.627110
16.904106 2.295853 -2.644730
16.898783 2.189614 -2.641746
16.694981 2.059129 -2.607862
16.148117 1.891164 -2.520578
16.070773 1.782215 -2.506751
11.073733 1.159317 -1.726161
6.122740 0.603037 -0.953811
16.766505 1.547542 -2.610387
17.559575 1.512140 -2.732364
16.868060 1.348376 -2.623424
16.408464 1.210361 -2.550742
15.462052 1.045201 -2.402577
15.230182 0.935687 -2.365611
7.807816 0.335563 -1.211575
16.547025 0.609463 -2.567051
17.168617 0.526892 -2.662931
15.832564 0.388668 -2.455287
15.131247 0.278564 -2.346219
3.251385 0.039903 -0.504105
3.396713 -0.041686 -0.526637
15.006741 -0.276272 -2.326913
15.437232 -0.378963 -2.393980
13.231791 -0.406074 -2.052311
2.071291 -0.076290 -0.321333
12.682185 -0.779147 -1.969846
16.216250 -1.096183 -2.519768
15.808093 -1.166075 -2.457412
14.683936 -1.173784 -2.283735
12.813921 -1.103469 -1.993915
11.116724 -1.026069 -1.730769
15.141365 -1.491294 -2.358748
16.864464 -1.765552 -2.628813
16.732876 -1.855641 -2.610027
16.442713 -1.925665 -2.566562
16.370695 -2.019133 -2.557206
16.414687 -2.126889 -2.566068
16.428801 -2.231299 -2.570367
16.445798 -2.336466 -2.575220
16.497677 -2.447199 -2.585647
16.583624 -2.564039 -2.601534
16.672484 -2.682625 -2.618006
16.763812 -2.802950 -2.634998
16.624386 -2.884605 -2.615816
16.367800 -2.943650 -2.578236
15.817722 -2.945029 -2.494388
15.828053 -3.047555 -2.498919
9.832119 -1.955730 -1.554152
13.946178 -2.863136 -2.207192
16.935661 -3.585307 -2.683753
16.562588 -3.612648 -2.628096
16.040445 -3.602002 -2.548704
15.892855 -3.671437 -2.528785
16.083529 -3.819588 -2.562804
16.170177 -3.945135 -2.580420
16.180872 -4.053097 -2.586047
16.192004 -4.161636 -2.591858
16.176465 -4.263625 -2.593510
16.074747 -4.342473 -2.581425
15.896043 -4.399028 -2.557014
15.828608 -4.485106 -2.550545
15.873544 -4.603242 -2.562289
15.950039 -4.731715 -2.579275
15.936991 -4.834433 -2.581913
15.826054 -4.907023 -2.568770
15.766420 -4.994779 -2.564017
15.830653 -5.122221 -2.579526
15.899804 -5.252586 -2.595996
15.984156 -5.389455 -2.615119
16.237946 -5.586221 -2.662199
16.420923 -5.762091 -2.697943
16.412453 -5.872470 -2.702421
15.652254 -5.709042 -2.582969
15.123864 -5.621698 -2.501418
12.537690 -4.748151 -2.078456
15.993005 -6.169183 -2.657492
16.010886 -6.289209 -2.666825
15.520767 -6.206882 -2.591484
15.417179 -6.275455 -2.580569
15.686278 -6.497469 -2.632236
15.913199 -6.706150 -2.677168
16.006038 -6.861230 -2.699819
16.073932 -7.007395 -2.718473
16.011530 -7.097423 -2.715233
15.876722 -7.154546 -2.699766
15.748911 -7.213532 -2.685509
15.680018 -7.298702 -2.681347
15.680437 -7.416294 -2.689150
15.732472 -7.559378 -2.705978
15.775729 -7.699664 -2.721493
15.811057 -7.837394 -2.735832
15.806838 -7.956494 -2.743498
15.768593 -8.058889 -2.745391
15.687602 -8.139281 -2.739934
15.527670 -8.177614 -2.720713
15.377014 -8.219185 -2.703102
15.266059 -8.280710 -2.692478
15.190644 -8.360840 -2.688175
15.206755 -8.491695 -2.700196
15.178928 -8.598757 -2.704572
15.148537 -8.704749 -2.708623
15.133539 -8.820089 -2.715567
15.033362 -8.885726 -2.707324
14.950726 -8.961120 -2.702294
14.917433 -9.066041 -2.706280
14.958584 -9.217209 -2.723955
15.057624 -9.406193 -2.752448
15.108904 -9.567608 -2.772501
15.150142 -9.724468 -2.790965
15.161002 -9.863314 -2.804062
15.079408 -9.942447 -2.800202
14.980324 -10.009533 -2.793155
14.865880 -10.065549 -2.783280
14.762763 -10.128393 -2.775557
14.799061 -10.287411 -2.794197
14.832663 -10.446340 -2.812590
14.872527 -10.611530 -2.832443
14.890981 -10.763190 -2.848482
14.788056 -10.827557 -2.841448
14.658677 -10.871616 -2.829353
14.479999 -10.877449 -2.807695
14.297732 -10.878403 -2.785244
14.268468 -10.995020 -2.792633
14.265109 -11.132600 -2.805293
14.311764 -11.310991 -2.828063
14.350606 -11.485442 -2.849611
14.310440 -11.598062 -2.855713
14.224798 -11.673990 -2.852863
14.086494 -11.705868 -2.839477
13.960270 -11.746533 -2.828509
13.886667 -11.830892 -2.828252
13.822822 -11.923649 -2.830096
13.796346 -12.049240 -2.839759
13.763371 -12.170112 -2.848289
13.665755 -12.234028 -2.843570
13.556407 -12.286811 -2.836450
13.425599 -12.319144 -2.824844
13.309007 -12.363435 -2.816221
13.226361 -12.438719 -2.814830
13.127372 -12.498297 -2.810032
13.039338 -12.567913 -2.807642
12.944607 -12.630735 -2.803879
12.807134 -12.650923 -2.790864
12.669342 -12.669342 -2.777725
12.532908 -12.687661 -2.764829
12.418674 -12.727277 -2.756804
12.338568 -12.801391 -2.756407
12.261250 -12.878394 -2.756736
12.174962 -12.945902 -2.755143
12.068499 -12.991514 -2.749039
11.932511 -13.004240 -2.736187
11.767977 -12.983962 -2.716676
11.601055 -12.958707 -2.696447
11.465683 -12.966721 -2.683425
11.339003 -12.983126 -2.672371
11.217091 -13.003726 -2.662394
11.144285 -13.080753 -2.664114
11.079953 -13.168068 -2.668000
10.978492 -13.211190 -2.663038
10.889350 -13.268712 -2.661115
10.757932 -13.273834 -2.648853
10.575546 -13.213727 -2.623860
10.431166 -13.198524 -2.608082
10.257173 -13.143353 -2.584695
10.129166 -13.144832 -2.572714
10.025763 -13.177088 -2.566939
9.918702 -13.203720 -2.560223
9.877552 -13.318337 -2.570647
9.805931 -13.392741 -2.573346
9.731649 -13.463834 -2.575484
9.699693 -13.594547 -2.589054
9.657683 -13.712856 -2.600251
9.648630 -13.880135 -2.620695
9.660424 -14.080669 -2.647316
9.614195 -14.199272 -2.658473
9.559057 -14.306140 -2.667450
9.517582 -14.435027 -2.680542
9.467579 -14.552713 -2.691558
9.467274 -14.749448 -2.717149
9.437394 -14.903273 -2.734767
9.388712 -15.029639 -2.747333
9.312686 -15.113533 -2.752171
9.170030 -15.088537 -2.737321
9.023487 -15.054778 -2.721101
8.844163 -14.963043 -2.694661
8.664015 -14.865746 -2.667514
8.563828 -14.903297 -2.664773
8.490853 -14.988452 -2.670634
8.464510 -15.158074 -2.691552
8.448565 -15.350030 -2.716380
8.364862 -15.421199 -2.719840
8.279206 -15.489304 -2.722841
8.158443 -15.491268 -2.714335
8.026785 -15.470778 -2.702064
7.952123 -15.559686 -2.709019
7.890476 -15.675684 -2.720734
7.855432 -15.847446 -2.742128
7.820021 -16.022327 -2.764034
7.742411 -16.113398 -2.771497
7.660819 -16.197440 -2.777815
7.560695 -16.242865 -2.777596
7.447532 -16.259791 -2.772624
7.361804 -16.336650 -2.777975
7.257260 -16.372116 -2.776381
7.155562 -16.413804 -2.775953
7.067331 -16.486834 -2.780918
6.957459 -16.509535 -2.777494
6.852145 -16.542543 -2.775921
6.768183 -16.627685 -2.783187
6.673322 -16.687135 -2.786232
6.601282 -16.805353 -2.799154
6.519459 -16.901062 -2.808380
6.412790 -16.933237 -2.807135
6.307835 -16.969756 -2.806720
6.181612 -16.947880 -2.796776
6.060568 -16.938151 -2.788981
5.963047 -16.993612 -2.792036
5.877858 -17.085674 -2.801183
5.814740 -17.245473 -2.821479
5.730530 -17.346563 -2.832212
5.628988 -17.396857 -2.834731
5.542152 -17.494248 -2.845005
5.411021 -17.451538 -2.832607
5.255672 -17.325629 -2.806883
5.102071 -17.198465 -2.781157
4.993719 -17.220039 -2.779639
4.919002 -17.359893 -2.797289
4.823769 -17.430862 -2.803903
4.721340 -17.477218 -2.806646
4.625232 -17.548424 -2.813471
4.512237 -17.556112 -2.810211
4.383791 -17.501075 -2.797043
4.237620 -17.369005 -2.771728
4.087311 -17.210856 -2.742437
3.946550 -17.083758 -2.718275
3.810609 -16.969413 -2.696310
3.694633 -16.938460 -2.687739
3.585869 -16.938314 -2.684174
3.477321 -16.937842 -2.680667
3.371567 -16.950010 -2.679268
3.257998 -16.921028 -2.671477
3.144945 -16.891472 -2.663714
3.041859 -16.913883 -2.664254
2.937075 -16.926782 -2.663397
2.839087 -16.979935 -2.668969
2.749338 -17.087105 -2.683113
2.661825 -17.216078 -2.700749
2.576757 -17.371085 -2.722534
2.488504 -17.515958 -2.742795
2.392053 -17.612417 -2.755549
2.293299 -17.698994 -2.766841
2.195169 -17.797958 -2.780154
2.086334 -17.814613 -2.780703
1.972235 -17.784236 -2.774020
1.857064 -17.738582 -2.765070
1.747504 -17.742710 -2.763990
1.640020 -17.768436 -2.766378
1.530862 -17.776976 -2.766193
1.421021 -17.776853 -2.764765
1.308370 -17.737137 -2.757287
1.196057 -17.693722 -2.749346
1.083185 -17.631007 -2.738516
0.970438 -17.555114 -2.725752
0.861418 -17.534563 -2.721689
0.753237 -17.526144 -2.719614
0.647152 -17.570294 -2.725798
0.540755 -17.620345 -2.732996
0.433234 -17.648013 -2.736824
0.325238 -17.666541 -2.739336
0.216371 -17.630572 -2.733501
0.108002 -17.601375 -2.728820
0.000000 -17.599984 -2.728553
-0.108115 -17.619844 -2.731684
-0.216890 -17.672900 -2.740064
-0.326226 -17.720195 -2.747655
-0.436276 -17.771928 -2.756040
-0.547096 -17.826961 -2.765043
-0.658115 -17.867933 -2.771972
-0.769200 -17.897562 -2.777249
-0.880540 -17.923803 -2.782107
-0.991832 -17.942120 -2.785842
-1.103331 -17.958928 -2.789450
-1.216074 -17.989834 -2.795357
-1.327640 -17.998377 -2.797898
-1.437054 -17.977415 -2.795957
-1.544000 -17.929543 -2.789933
-1.648960 -17.865295 -2.781458
-1.752083 -17.789193 -2.771231
-1.856927 -17.737272 -2.764866
-1.963635 -17.706691 -2.761925
-2.070810 -17.682065 -2.760014
-2.176451 -17.646195 -2.756447
-2.283302 -17.621837 -2.754779
-2.388068 -17.583077 -2.750959
-2.493620 -17.551966 -2.748433
-2.604641 -17.559065 -2.751996
-2.712769 -17.545573 -2.752438
-2.824109 -17.551801 -2.756082
-2.938823 -17.576438 -2.762730
-3.046397 -17.556816 -2.762532
-3.151775 -17.525054 -2.760525
-3.253812 -17.476194 -2.755922
-3.347435 -17.385534 -2.744813
-3.440138 -17.294744 -2.733760
-3.535779 -17.222586 -2.725732
-3.632282 -17.157556 -2.718916
-3.734807 -17.122643 -2.716964
-3.836791 -17.086006 -2.714835
-3.938564 -17.049188 -2.712774
-4.043758 -17.027464 -2.713214
-4.146538 -16.995683 -2.712153
-4.255686 -16.989652 -2.715307
-4.365025 -16.983342 -2.718528
-4.474411 -16.976200 -2.721728
-4.586830 -16.979294 -2.726685
-4.695902 -16.968808 -2.729577
-4.803808 -16.953356 -2.731782
-4.906925 -16.920745 -2.731327
-5.004306 -16.868912 -2.727865
-5.100776 -16.815005 -2.724158
-5.193304 -16.749360 -2.718635
-5.289117 -16.695523 -2.715113
-5.384398 -16.640932 -2.711557
-5.478874 -16.584789 -2.707835
-5.572742 -16.527751 -2.704055
-5.667893 -16.475350 -2.701121
-5.770597 -16.445164 -2.701926
-5.880260 -16.434226 -2.706006
-5.990974 -16.425214 -2.710524
-6.100539 -16.412075 -2.714482
-6.209091 -16.395362 -2.717968
-6.321536 -16.387967 -2.723121
-6.417011 -16.336239 -2.721017
-6.517993 -16.298724 -2.721379
-6.609902 -16.238829 -2.718099
-6.694293 -16.161453 -2.711972
-6.808556 -16.156199 -2.718050
-6.923937 -16.152323 -2.724494
-7.048612 -16.168478 -2.734463
-7.176856 -16.190729 -2.745622
-7.280871 -16.157052 -2.747435
-7.395558 -16.146318 -2.753275
-7.474155 -16.056949 -2.745804
-7.562379 -15.989308 -2.742121
-7.644996 -15.910660 -2.736626
-7.715170 -15.807499 -2.726974
-7.830151 -15.796446 -2.733304
-7.928810 -15.751839 -2.733952
-8.046854 -15.745044 -2.741291
-8.170049 -15.746905 -2.750291
-8.254183 -15.673058 -2.746188
-8.328223 -15.581010 -2.738962
-8.372973 -15.436153 -2.722478
-8.432591 -15.321006 -2.711244
-8.521531 -15.260186 -2.709683
-8.617758 -15.212470 -2.710549
-8.720503 -15.175953 -2.713525
-8.828584 -15.148115 -2.718183
-8.927025 -15.103233 -2.719907
-9.019586 -15.048269 -2.719924
-9.109379 -14.988742 -2.719217
-9.118618 -14.798581 -2.694818
-9.064502 -14.510638 -2.652462
-8.987088 -14.192163 -2.604278
-9.066646 -14.125295 -2.602167
-9.262716 -14.237818 -2.633317
-9.448350 -14.330025 -2.661044
-9.656352 -14.451752 -2.694600
-9.848386 -14.545151 -2.723231
-10.041748 -14.636472 -2.751813
-10.231903 -14.719209 -2.779120
-10.437760 -14.820480 -2.810280
-10.572701 -14.818106 -2.822078
-10.705876 -14.811686 -2.833313
-10.692158 -14.603132 -2.805916
-10.619351 -14.318537 -2.763701
-10.662845 -14.194319 -2.752302
-10.745329 -14.122830 -2.751173
-10.847281 -14.076744 -2.755109
-10.830022 -13.877391 -2.729046
-10.778100 -13.637499 -2.694825
-10.820171 -13.519375 -2.684553
-10.968838 -13.534063 -2.700783
-11.255094 -13.714371 -2.750494
-11.443143 -13.770338 -2.775748
-11.625991 -13.817011 -2.799483
-11.777084 -13.823508 -2.815388
-11.861082 -13.750290 -2.815246
-11.914175 -13.641697 -2.807927
-11.894302 -13.451453 -2.783739
-11.870259 -13.259415 -2.759018
-11.828275 -13.050490 -2.730596
-11.818909 -12.880435 -2.710137
-11.840180 -12.745733 -2.697031
-11.921855 -12.676768 -2.697866
-11.952370 -12.553967 -2.687289
-11.848083 -12.292508 -2.646834
-11.693860 -11.984451 -2.595904
-11.645298 -11.789091 -2.569017
-11.878415 -11.878415 -2.604316
-12.215112 -12.066122 -2.661853
-12.517336 -12.213824 -2.711330
-12.729949 -12.269709 -2.741024
-12.866000 -12.249451 -2.754083
-12.942575 -12.171833 -2.754435
-13.012359 -12.087863 -2.753450
-13.079999 -12.002027 -2.752127
-13.161995 -11.929337 -2.753926
-13.205056 -11.821595 -2.747707
-13.112500 -11.594587 -2.713593
-12.934631 -11.296649 -2.662389
-12.844285 -11.079556 -2.629750
-12.866898 -10.962089 -2.620559
-13.011638 -10.948329 -2.636306
-13.121139 -10.903660 -2.644886
-13.183150 -10.819131 -2.643955
-13.239235 -10.729891 -2.641949
-13.224254 -10.583972 -2.625950
-13.182934 -10.418844 -2.605001
-13.090293 -10.215765 -2.574260
-12.930176 -9.963756 -2.530702
-12.799275 -9.738305 -2.493340
-12.598360 -9.463952 -2.442842
-12.478183 -9.254451 -2.408484
-12.432350 -9.102750 -2.388812
-12.474592 -9.016626 -2.386253
-12.580011 -8.975823 -2.395838
-12.724970 -8.961935 -2.412927
-12.964441 -9.012094 -2.447804
-13.054769 -8.956577 -2.454436
-13.044674 -8.832427 -2.442302
-13.062336 -8.727974 -2.435537
-13.034012 -8.593837 -2.420378
-13.134354 -8.544835 -2.429229
-13.286650 -8.528343 -2.447672
-13.422027 -8.499405 -2.462957
-13.611340 -8.502729 -2.488076
-13.815767 -8.513026 -2.515848
-13.995155 -8.505529 -2.538963
-14.099470 -8.450897 -2.548432
-14.070616 -8.316678 -2.533945
-13.963238 -8.138018 -2.505568
-13.923966 -8.001078 -2.489665
-13.915489 -7.883027 -2.479453
-13.899704 -7.761816 -2.468108
-14.013872 -7.713152 -2.479930
-14.330784 -7.773392 -2.527524
-14.760450 -7.889625 -2.594717
-15.133002 -7.969763 -2.651561
-15.559036 -8.072576 -2.717479
-16.032035 -8.193527 -2.791257
-16.166754 -8.137660 -2.805966
-16.285175 -8.072410 -2.817870
-16.276210 -7.943933 -2.807832
-16.248081 -7.807125 -2.794662
-16.412390 -7.762482 -2.814678
-16.474733 -7.668624 -2.817247
-16.533431 -7.572868 -2.819285
-16.691210 -7.521580 -2.838267
-16.660527 -7.385104 -2.825290
-16.663694 -7.264500 -2.818215
-16.719193 -7.166934 -2.820111
-16.685836 -7.031756 -2.807154
-16.756134 -6.940618 -2.811763
-16.806382 -6.840920 -2.813098
-16.916537 -6.765062 -2.824534
-16.960433 -6.662199 -2.824985
-16.940063 -6.534503 -2.814861
-16.905308 -6.402212 -2.802505
-16.685658 -6.202233 -2.759731
-16.587996 -6.050347 -2.737387
-16.547160 -5.920669 -2.724602
-16.546358 -5.806106 -2.718552
-16.757563 -5.764981 -2.747389
-16.927028 -5.707368 -2.769379
-17.090693 -5.646002 -2.790436
-17.221006 -5.572089 -2.806077
-17.258557 -5.467485 -2.806676
-17.313102 -5.368097 -2.810137
-17.411117 -5.281605 -2.820733
-17.528348 -5.199933 -2.834503
-17.636938 -5.114617 -2.846934
-17.761359 -5.032760 -2.861979
-17.783868 -4.921459 -2.860687
-17.786590 -4.804915 -2.856328
-17.736998 -4.674934 -2.843704
-17.631264 -4.531552 -2.822241
-17.644127 -4.419624 -2.819906
-17.640152 -4.303773 -2.814997
-17.707323 -4.205214 -2.821545
-17.855298 -4.124785 -2.841038
-17.975316 -4.036492 -2.856140
-18.068580 -3.941136 -2.867062
-18.125997 -3.837303 -2.872383
-18.127553 -3.721567 -2.868957
-18.157008 -3.611654 -2.870057
-18.177350 -3.499892 -2.869824
-18.200190 -3.388610 -2.870093
-18.237526 -3.279909 -2.872753
-18.197640 -3.157590 -2.863364
-18.188229 -3.041116 -2.858894
-18.154536 -2.921090 -2.850727
-18.084152 -2.796040 -2.836927
-18.032901 -2.674928 -2.826259
-18.001447 -2.557478 -2.818817
-17.940737 -2.436644 -2.806916
-17.890494 -2.318112 -2.796778
-17.822018 -2.198136 -2.783912
-17.668596 -2.069233 -2.757911
-17.546049 -1.945820 -2.736868
-17.365370 -1.817992 -2.706894
-17.334776 -1.707326 -2.700441
-17.470455 -1.612516 -2.719985
-17.511654 -1.508013 -2.724907
-17.558592 -1.403574 -2.730819
-17.650393 -1.301971 -2.743803
-17.699096 -1.196421 -2.750181
-17.899416 -1.099675 -2.780207
-18.013691 -0.995788 -2.796955
-18.052518 -0.886863 -2.802086
-17.903289 -0.769446 -2.778137
-17.829799 -0.656710 -2.766056
-17.809373 -0.546556 -2.762315
