-15.641922 -4.536073 -3.165749
-15.732720 -4.457936 -3.178529
-15.817513 -4.377295 -3.190174
-15.879521 -4.289734 -3.197311
-15.948211 -4.203465 -3.205888
-15.986977 -4.108941 -3.208552
-16.007291 -4.009618 -3.207631
-16.020779 -3.908685 -3.205467
-16.020538 -3.804629 -3.200688
-16.017188 -3.700160 -3.195423
-16.005069 -3.594058 -3.188545
-15.986721 -3.487039 -3.180567
-15.967247 -3.380292 -3.172507
-15.936437 -3.271734 -3.162337
-15.883684 -3.159461 -3.147963
-15.829706 -3.047873 -3.133499
-15.828322 -2.947002 -3.129587
-15.870322 -2.854181 -3.134370
-15.973352 -2.771639 -3.151300
-16.067296 -2.686491 -3.166522
-16.154012 -2.599203 -3.180409
-16.247142 -2.512015 -3.195649
-16.304486 -2.418542 -3.203949
-16.368523 -2.325487 -3.213668
-16.417497 -2.229763 -3.220537
-16.462188 -2.133043 -3.226675
-16.495254 -2.034496 -3.230649
-16.524861 -1.935286 -3.234060
-16.584662 -1.839204 -3.243495
-16.637639 -1.741806 -3.251704
-16.703905 -1.645191 -3.262621
-16.874699 -1.557528 -3.294052
-17.026236 -1.466212 -3.321814
-17.143301 -1.370377 -3.342950
-17.295462 -1.275790 -3.371031
-17.372960 -1.174374 -3.384668
-17.463936 -1.072921 -3.401046
-17.573880 -0.971476 -3.421232
-17.586636 -0.863976 -3.422619
-17.555931 -0.754517 -3.415677
-17.574381 -0.647303 -3.418430
-17.557037 -0.538812 -3.414349
-17.562145 -0.431126 -3.414764
-17.633487 -0.324630 -3.428184
-17.686958 -0.217063 -3.438255
-17.759992 -0.108975 -3.452258
-17.225477 0.000000 -3.484999
-17.259992 0.105907 -3.492048
-17.281417 0.212086 -3.496580
-17.279445 0.318112 -3.496510
-17.255810 0.423606 -3.492188
-17.230849 0.528802 -3.487728
-17.234101 0.634770 -3.489108
-17.247102 0.741244 -3.492596
-17.270436 0.848442 -3.498309
-17.290810 0.955828 -3.503558
-17.275614 1.061351 -3.501733
-17.258055 1.166607 -3.499559
-17.229672 1.270937 -3.495319
-17.190287 1.374133 -3.488974
-17.154372 1.477246 -3.483459
-17.144050 1.582389 -3.483269
-17.130186 1.687176 -3.482490
-17.123317 1.792652 -3.483264
-17.146020 1.901458 -3.490190
-17.109504 2.003756 -3.485194
-17.103769 2.109549 -3.486597
-17.092604 2.214728 -3.487025
-17.068367 2.318162 -3.484917
-17.059058 2.423592 -3.485987
-17.002907 2.522143 -3.477610
-16.956346 2.621667 -3.471311
-16.945146 2.726497 -3.472378
-16.898133 2.825409 -3.466231
-16.871016 2.927399 -3.464289
-16.846550 3.029750 -3.463017
-16.834675 3.134371 -3.464464
-16.840402 3.242474 -3.469672
-16.843729 3.350426 -3.474527
-16.840912 3.457421 -3.478257
-16.832732 3.563517 -3.481018
-16.806358 3.665819 -3.480150
-16.788072 3.769888 -3.481088
-16.759082 3.871546 -3.479937
-16.711458 3.968711 -3.475040
-16.673857 4.068020 -3.472346
-16.578618 4.152728 -3.457754
-16.446599 4.227072 -3.435564
-16.301520 4.296586 -3.410701
-16.113186 4.352857 -3.376821
-16.010065 4.430582 -3.360844
-15.955837 4.521157 -3.355221
-15.909101 4.613554 -3.351283
-15.919020 4.722513 -3.359414
-15.917426 4.828498 -3.365266
-15.880678 4.923960 -3.363821
-15.818559 5.011296 -3.357114
-15.727143 5.088729 -3.344276
-15.620395 5.160281 -3.328247
-15.538711 5.239262 -3.317630
-15.463876 5.319923 -3.308560
-15.398036 5.403160 -3.301504
-15.345247 5.490617 -3.297347
-15.276938 5.572149 -3.289954
-15.221809 5.658105 -3.285497
-15.161498 5.741814 -3.280022
-15.089954 5.820837 -3.272209
-15.013593 5.897464 -3.263436
-14.947680 5.977700 -3.257020
-14.891078 6.061309 -3.252730
-14.837355 6.145834 -3.249171
-14.776169 6.226983 -3.244078
-14.702757 6.302559 -3.236391
-14.630422 6.378100 -3.229022
-14.564360 6.455937 -3.223124
-14.519411 6.542899 -3.222001
-14.471077 6.628241 -3.220240
-14.423159 6.713662 -3.218683
-14.377363 6.799986 -3.217714
-14.336420 6.888581 -3.217950
-14.309600 6.984089 -3.221488
-14.269751 7.073383 -3.222228
-14.231335 7.163452 -3.223417
-14.169745 7.241763 -3.219471
-14.106062 7.318722 -3.215145
-14.035916 7.391985 -3.209434
-13.950490 7.456692 -3.200303
-13.890710 7.534684 -3.197135
-13.840880 7.617938 -3.196364
-13.765358 7.686796 -3.189756
-13.719426 7.771959 -3.190103
-13.649373 7.843290 -3.184945
-13.566187 7.906609 -3.176795
-13.491473 7.974366 -3.170697
-13.433404 8.051672 -3.168601
-13.405029 8.146881 -3.173640
-13.406599 8.260904 -3.185952
-13.414504 8.379769 -3.199990
-13.391956 8.480362 -3.206963
-13.337039 8.560686 -3.206331
-13.236820 8.611496 -3.194881
-13.164147 8.679641 -3.190135
-13.120007 8.766509 -3.192414
-13.084196 8.859187 -3.196867
-13.076231 8.971302 -3.208310
-13.042422 9.066302 -3.213604
-12.994297 9.151617 -3.215522
-12.942978 9.234799 -3.216784
-12.878114 9.308291 -3.214798
-12.833977 9.396814 -3.218112
-12.793868 9.488579 -3.222594
-12.775811 9.597255 -3.232818
-12.756470 9.705737 -3.242932
-12.726431 9.806754 -3.250532
-12.711586 9.920219 -3.262226
-12.675642 10.017917 -3.268716
-12.632674 10.110503 -3.273572
-12.599144 10.211122 -3.281057
-12.531551 10.284378 -3.279827
-12.481700 10.372286 -3.283375
-12.431417 10.460116 -3.286970
-12.352353 10.523717 -3.283076
-12.273072 10.586825 -3.279209
-12.180661 10.638158 -3.271897
-12.080855 10.682366 -3.262633
-12.010069 10.751803 -3.261272
-11.961349 10.841135 -3.266044
-11.920209 10.937819 -3.273075
-11.900748 11.055229 -3.286295
-11.861133 11.154792 -3.294195
-11.812741 11.246664 -3.299859
-11.763979 11.338663 -3.305611
-11.702183 11.418436 -3.307871
-11.652503 11.510376 -3.313730
-11.606031 11.606031 -3.320704
-11.559517 11.702251 -3.327878
-11.516835 11.803027 -3.336377
-11.459776 11.889635 -3.340919
-11.408125 11.982329 -3.347233
-11.354273 12.073246 -3.353105
-11.287402 12.150678 -3.355312
-11.228797 12.237321 -3.360148
-11.161741 12.315083 -3.362631
-11.086601 12.384047 -3.362824
-11.020541 12.463303 -3.365919
-10.941438 12.527915 -3.365174
-10.859396 12.589058 -3.363636
-10.759462 12.629061 -3.356621
-10.657149 12.665582 -3.348885
-10.545846 12.690558 -3.338316
-10.426966 12.705295 -3.325300
-10.329890 12.745687 -3.319220
-10.233005 12.785736 -3.313235
-10.129824 12.817238 -3.305229
-10.035473 12.859270 -3.300127
-9.944881 12.905681 -3.296315
-9.866710 12.968040 -3.296717
-9.795662 13.039930 -3.299651
-9.714765 13.098844 -3.299413
-9.628119 13.149889 -3.297327
-9.534939 13.191684 -3.293075
-9.434380 13.222698 -3.286304
-9.329700 13.247157 -3.278093
-9.232092 13.280921 -3.272369
-9.148807 13.334956 -3.271789
-9.070587 13.396414 -3.273151
-8.998676 13.467471 -3.276960
-8.922636 13.532691 -3.279446
-8.832128 13.575956 -3.276736
-8.739730 13.615978 -3.273390
-8.661174 13.677488 -3.275340
-8.594014 13.757472 -3.281804
-8.524142 13.833807 -3.287474
-8.439518 13.886540 -3.287638
-8.347914 13.927653 -3.285182
-8.247191 13.953054 -3.279176
-8.136724 13.961018 -3.269252
-8.037752 13.987787 -3.263910
-7.929989 13.998388 -3.254969
-7.833156 14.027458 -3.250491
-7.729827 14.044169 -3.243311
-7.627978 14.062703 -3.236721
-7.541614 14.109368 -3.236750
-7.428260 14.104794 -3.225184
-7.314023 14.097005 -3.213081
-7.202868 14.093641 -3.202180
-7.095249 14.095839 -3.192727
-7.001016 14.123758 -3.189261
-6.919841 14.177963 -3.191853
-6.838431 14.232048 -3.194523
-6.755350 14.282988 -3.196592
-6.675995 14.342238 -3.200624
-6.612729 14.437212 -3.212703
-6.532274 14.495832 -3.216768
-6.452069 14.555633 -3.221193
-6.384371 14.644807 -3.232197
-6.275395 14.639388 -3.222442
-6.191347 14.691608 -3.225513
-6.097708 14.721170 -3.223728
-5.980841 14.693388 -3.209548
-5.891473 14.732064 -3.210039
-5.783433 14.723297 -3.200336
-5.682672 14.731774 -3.194539
-5.602918 14.794737 -3.200677
-5.516410 14.840613 -3.203219
-5.437615 14.908092 -3.210521
-5.342132 14.930257 -3.208175
-5.232647 14.912103 -3.197315
-5.128927 14.908692 -3.189776
-5.024639 14.902177 -3.181726
-4.940370 14.954714 -3.186410
-4.850943 14.992245 -3.188005
-4.762554 15.033385 -3.190479
-4.678010 15.087443 -3.195799
-4.582707 15.107159 -3.193959
-4.491251 15.139465 -3.194903
-4.397807 15.165133 -3.194565
-4.300071 15.175590 -3.191150
-4.197408 15.167484 -3.183969
-4.108211 15.207567 -3.187032
-4.018561 15.246674 -3.190000
-3.926548 15.277327 -3.191312
-3.842742 15.341084 -3.199645
-3.751902 15.378163 -3.202516
-3.661362 15.417270 -3.205921
-3.573748 15.469977 -3.212261
-3.486095 15.524288 -3.219036
-3.395916 15.568959 -3.223918
-3.304426 15.608884 -3.227926
-3.212351 15.647186 -3.231710
-3.120822 15.689430 -3.236419
-3.029274 15.733105 -3.241532
-2.940615 15.794015 -3.250303
-2.848256 15.837375 -3.255568
-2.753311 15.867723 -3.258273
-2.659655 15.906797 -3.262884
-2.562479 15.925776 -3.263490
-2.465419 15.945773 -3.264426
-2.368831 15.969361 -3.266218
-2.272021 15.992190 -3.267975
-2.174416 16.009982 -3.268822
-2.076833 16.028373 -3.269914
-1.978609 16.042135 -3.270183
-1.879782 16.050925 -3.269562
-1.780262 16.053164 -3.267731
-1.682038 16.066745 -3.268334
-1.584161 16.084252 -3.269856
-1.485847 16.098079 -3.270752
-1.387585 16.113191 -3.272031
-1.289870 16.136157 -3.275025
-1.190840 16.143829 -3.275038
-1.092967 16.168662 -3.278653
-0.994475 16.187073 -3.281088
-0.895529 16.200023 -3.282537
-0.796866 16.220573 -3.285648
-0.697815 16.236600 -3.287966
-0.598926 16.260936 -3.292088
-0.499462 16.274820 -3.294216
-0.399824 16.287016 -3.296126
-0.300201 16.306535 -3.299641
-0.200326 16.323211 -3.302705
-0.100173 16.325516 -3.302985
0.000000 16.328940 -3.303615
0.100139 16.319901 -3.301848
0.200100 16.304776 -3.298975
0.299966 16.293778 -3.297060
0.399592 16.277578 -3.294216
0.498912 16.256887 -3.290586
0.598119 16.239043 -3.287655
0.696585 16.207974 -3.282169
0.795285 16.188404 -3.279132
0.893813 16.168977 -3.276246
0.991919 16.145477 -3.272656
1.090630 16.134094 -3.271644
1.189856 16.130486 -3.272331
1.287740 16.109514 -3.269618
1.386236 16.097526 -3.268850
1.483726 16.075108 -3.266085
1.581637 16.058626 -3.264646
1.679360 16.041157 -3.263128
1.778593 16.038108 -3.264667
1.877476 16.031241 -3.265552
1.976253 16.023036 -3.266290
2.076792 16.028054 -3.269849
2.174589 16.011252 -3.269082
2.270726 15.983075 -3.266112
2.367419 15.959841 -3.264271
2.460402 15.913325 -3.257784
2.554076 15.873549 -3.252788
2.650463 15.851818 -3.251606
2.743794 15.812877 -3.247011
2.838516 15.783216 -3.244435
2.933903 15.757967 -3.242885
3.029091 15.732156 -3.241337
3.124978 15.710327 -3.240729
3.219732 15.683142 -3.239136
3.316891 15.667762 -3.240102
3.411790 15.641735 -3.238988
3.505417 15.610330 -3.236878
3.601066 15.588233 -3.236816
3.696752 15.566291 -3.236909
3.793269 15.547717 -3.237826
3.891293 15.534911 -3.240071
3.988410 15.518017 -3.241590
4.086313 15.503732 -3.243783
4.181918 15.480411 -3.244211
4.276487 15.453237 -3.243955
4.371930 15.429194 -3.244478
4.465073 15.397090 -3.243427
4.559642 15.370003 -3.243554
4.654495 15.343813 -3.243993
4.746208 15.307394 -3.242389
4.839666 15.276795 -3.242137
4.929006 15.233505 -3.239307
5.017381 15.187829 -3.236080
5.106653 15.145415 -3.233659
5.190789 15.088511 -3.228249
5.279014 15.044242 -3.225647
5.367977 15.002492 -3.223697
5.455081 14.955979 -3.220834
5.543485 14.913450 -3.218940
5.629076 14.863810 -3.215620
5.713598 14.811945 -3.211924
5.796971 14.757762 -3.207827
5.881236 14.706466 -3.204461
5.963720 14.651326 -3.200360
6.048426 14.602192 -3.197674
6.134961 14.557809 -3.196138
6.218532 14.506737 -3.193242
6.304851 14.462400 -3.191938
6.392952 14.422268 -3.191679
6.481243 14.382588 -3.191638
6.571019 14.346147 -3.192439
6.659980 14.307832 -3.192946
6.752778 14.277550 -3.195375
6.844405 14.244481 -3.197313
6.939826 14.218909 -3.201071
7.035328 14.192980 -3.204892
7.121719 14.148426 -3.204639
7.211112 14.109772 -3.205845
7.298457 14.067004 -3.206243
7.387869 14.028100 -3.207647
7.481546 13.996989 -3.210970
7.575109 13.965234 -3.214288
7.664888 13.926183 -3.216064
7.754849 13.887227 -3.217996
7.841382 13.841975 -3.218599
7.926492 13.794167 -3.218731
8.005186 13.735325 -3.216402
8.090425 13.687827 -3.216843
8.173337 13.636388 -3.216480
8.245617 13.567492 -3.212103
8.319237 13.501268 -3.208450
8.394232 13.437656 -3.205513
8.464467 13.366854 -3.200952
8.539505 13.304039 -3.198398
8.611348 13.236593 -3.194826
8.678320 13.162145 -3.189649
8.749738 13.094908 -3.186306
8.810824 13.012768 -3.179415
8.879161 12.941929 -3.175359
8.941497 12.862882 -3.169366
9.012907 12.797344 -3.166784
9.087111 12.735986 -3.165339
9.160105 12.673097 -3.163619
9.240733 12.620805 -3.164660
9.326281 12.575035 -3.167473
9.410316 12.526960 -3.169848
9.496468 12.481423 -3.173010
9.583190 12.436307 -3.176430
9.662506 12.381357 -3.177478
9.743621 12.328575 -3.179216
9.819248 12.268762 -3.179269
9.895205 12.209345 -3.179546
9.972189 12.151147 -3.180265
10.039327 12.081027 -3.177976
10.096766 11.999591 -3.172791
10.157823 11.922880 -3.168929
10.214887 11.841892 -3.164003
10.271829 11.761215 -3.159228
10.340754 11.694521 -3.158297
10.404512 11.622134 -3.155930
10.476746 11.559308 -3.156267
10.547580 11.494920 -3.156298
10.619756 11.431970 -3.156846
10.701202 11.378821 -3.160242
10.764203 11.305996 -3.158301
10.837548 11.244067 -3.159518
10.906535 11.177561 -3.159576
10.980009 11.115587 -3.161043
11.057185 11.057185 -3.163669
11.126482 10.990771 -3.164141
11.202260 10.930635 -3.166558
11.267977 10.860593 -3.166237
11.329466 10.786548 -3.164857
11.398015 10.719252 -3.165573
11.461958 10.647614 -3.165127
11.535709 10.585007 -3.167498
11.615925 10.528061 -3.171726
11.685430 10.461176 -3.173118
11.755192 10.394402 -3.174682
11.800785 10.306388 -3.169857
11.839308 10.212658 -3.163313
11.875848 10.117754 -3.156428
11.910474 10.021782 -3.149228
11.955336 9.934877 -3.144912
12.004796 9.852081 -3.141962
12.046574 9.763285 -3.137157
12.101084 9.685047 -3.135818
12.137319 9.592465 -3.129896
12.181558 9.506582 -3.126203
12.222070 9.418103 -3.121710
12.260921 9.328699 -3.116955
12.305916 9.244267 -3.113914
12.350315 9.159618 -3.110869
12.379274 9.063888 -3.104096
12.413098 8.972178 -3.098714
12.424465 8.864841 -3.087915
12.414429 8.743227 -3.072029
12.438631 8.646583 -3.064832
12.460694 8.548996 -3.057285
12.540892 8.491321 -3.064121
12.636732 8.443595 -3.074821
12.683377 8.362650 -3.073627
12.725384 8.278771 -3.071439
12.745591 8.181051 -3.064142
12.740676 8.067944 -3.051002
12.732580 7.953785 -3.037319
12.737216 7.848442 -3.026880
12.787680 7.771688 -3.027483
12.869697 7.713799 -3.035637
12.954634 7.657058 -3.044532
13.046844 7.603928 -3.055180
13.108813 7.532670 -3.058810
13.148054 7.448280 -3.057245
13.195966 7.368838 -3.057815
13.233691 7.283745 -3.056142
13.281942 7.204473 -3.057019
13.336385 7.128446 -3.059425
13.383297 7.048285 -3.060208
13.423152 6.964404 -3.059492
13.468888 6.883574 -3.060231
13.518675 6.804729 -3.061999
13.562475 6.722793 -3.062519
13.606062 6.640713 -3.063102
13.628214 6.548292 -3.058986
13.622852 6.443129 -3.048851
13.607906 6.334180 -3.036750
13.611259 6.234415 -3.028905
13.646560 6.149566 -3.028306
13.685092 6.066184 -3.028540
13.753422 5.995774 -3.035463
13.791918 5.912114 -3.035895
13.828555 5.827639 -3.036032
13.867522 5.744116 -3.036791
13.873387 5.647065 -3.030431
13.881550 5.551345 -3.024716
13.875643 5.450468 -3.016085
13.869779 5.350164 -3.007618
13.871402 5.253241 -3.000924
13.867492 5.154691 -2.993179
13.876008 5.061170 -2.988258
13.887384 4.968985 -2.984085
13.898513 4.876979 -2.979990
13.934582 4.793811 -2.981361
13.991670 4.717639 -2.987326
14.069570 4.647958 -2.997812
14.151049 4.578763 -3.009130
14.222455 4.505653 -3.018378
14.288323 4.430235 -3.026531
14.355815 4.354789 -3.035110
14.392993 4.269804 -3.037374
14.434565 4.185946 -3.040669
14.481161 4.103301 -3.045124
14.537748 4.023137 -3.051775
14.629064 3.951933 -3.065795
14.702983 3.875260 -3.076245
14.767004 3.795386 -3.084710
14.834491 3.715846 -3.093986
14.865313 3.626779 -3.095715
14.909032 3.540663 -3.100237
14.942759 3.451954 -3.102787
14.985833 3.365181 -3.107385
15.048958 3.282493 -3.116239
15.080250 3.192514 -3.118604
15.110648 3.102200 -3.120895
15.126353 3.008819 -3.120267
15.102325 2.907822 -3.111571
15.075893 2.806911 -3.102519
15.036822 2.704281 -3.091005
15.019252 2.606087 -3.084048
15.050931 2.516552 -3.087324
15.096922 2.429115 -3.093642
15.176355 2.346458 -3.106911
15.231532 2.259384 -3.115310
15.251899 2.166848 -3.116697
15.273570 2.074399 -3.118466
15.288654 1.980986 -3.119005
15.307026 1.887942 -3.120331
15.352539 1.797991 -3.127301
15.386330 1.706312 -3.131993
15.413238 1.613622 -3.135396
15.438862 1.520595 -3.138651
15.418787 1.423148 -3.132736
15.377765 1.324254 -3.122691
15.329343 1.225376 -3.111273
15.293221 1.128096 -3.102478
15.263782 1.031799 -3.095164
15.247540 0.936753 -3.090646
15.222582 0.841497 -3.084483
15.193770 0.746422 -3.077659
15.177207 0.652284 -3.073435
15.162586 0.558471 -3.069722
15.149602 0.464930 -3.066459
15.130915 0.371443 -3.062157
15.115752 0.278279 -3.058685
15.111382 0.185454 -3.057513
15.108020 0.092703 -3.056660
15.122352 -0.000000 -3.059502
15.136490 -0.092878 -3.062420
15.165136 -0.186114 -3.068389
15.197409 -0.279782 -3.075209
15.234972 -0.373998 -3.083216
15.273152 -0.468721 -3.091466
15.280816 -0.562826 -3.093659
15.280717 -0.656733 -3.094396
15.273177 -0.750323 -3.093743
15.244132 -0.842688 -3.088849
15.225933 -0.935426 -3.086267
15.201798 -1.027609 -3.082594
15.177166 -1.119535 -3.078935
15.162802 -1.212063 -3.077471
15.134393 -1.303296 -3.073271
15.111826 -1.394816 -3.070368
15.094126 -1.486642 -3.068568
15.067721 -1.577450 -3.065110
15.050592 -1.669079 -3.063651
15.025591 -1.759701 -3.060702
15.008726 -1.851150 -3.059523
15.012038 -1.945144 -3.062573
15.006669 -2.038150 -3.063972
15.018575 -2.133699 -3.069018
15.029056 -2.229350 -3.073897
15.022431 -2.322659 -3.075399
15.032436 -2.418739 -3.080428
15.037886 -2.514371 -3.084648
15.035560 -2.608917 -3.087397
15.045282 -2.705803 -3.092744
15.033477 -2.799014 -3.093789
15.031697 -2.894223 -3.097019
15.030034 -2.989660 -3.100398
15.009433 -3.081421 -3.099990
14.988846 -3.173163 -3.099701
14.971709 -3.265644 -3.100243
14.966283 -3.360791 -3.103331
14.978975 -3.460320 -3.110307
14.974727 -3.556265 -3.113898
14.966020 -3.651349 -3.116687
14.952313 -3.745359 -3.118560
14.902803 -3.830288 -3.113077
14.864566 -3.917849 -3.110053
14.821540 -4.003929 -3.106132
14.787811 -4.092338 -3.104268
14.788794 -4.190470 -3.109813
14.780154 -4.286165 -3.113468
14.777032 -4.383732 -3.118418
14.763805 -4.478551 -3.121367
14.703899 -4.559088 -3.114558
14.640547 -4.638104 -3.107108
14.577475 -4.716739 -3.099807
14.516325 -4.795546 -3.093003
14.491168 -4.886057 -3.093972
14.465745 -4.976543 -3.095005
14.452011 -5.071201 -3.098666
14.450238 -5.170378 -3.105030
14.418339 -5.258981 -3.105051
14.371849 -5.342166 -3.102040
14.320450 -5.423300 -3.098070
14.274862 -5.506422 -3.095459
14.259861 -5.601392 -3.099601
14.268528 -5.706101 -3.109037
14.310217 -5.824874 -3.125850
14.403934 -5.966305 -3.154258
14.437344 -6.084195 -3.169690
14.429070 -6.185239 -3.176146
14.372019 -6.265450 -3.171991
14.261726 -6.321789 -3.156150
14.158142 -6.380100 -3.141831
14.066573 -6.442964 -3.130225
14.005405 -6.519207 -3.125457
13.947902 -6.596867 -3.121599
13.883729 -6.671066 -3.116339
13.797646 -6.734220 -3.106233
13.671322 -6.776747 -3.087097
13.588399 -6.839825 -3.077792
13.593004 -6.947006 -3.088432
13.629112 -7.071263 -3.106435
13.686192 -7.207804 -3.129467
13.739208 -7.343760 -3.151834
13.764528 -7.466240 -3.168093
13.748206 -7.566931 -3.174963
13.687596 -7.643372 -3.171737
13.598880 -7.703670 -3.162073
13.495471 -7.754854 -3.149033
13.416461 -7.819346 -3.141733
13.349781 -7.890617 -3.137398
13.288843 -7.965026 -3.134503
13.253422 -8.054742 -3.137747
13.212359 -8.141217 -3.139793
13.169998 -8.227032 -3.141664
13.129772 -8.314336 -3.144178
13.079693 -8.395503 -3.144463
13.030969 -8.477575 -3.145196
12.988895 -8.564090 -3.147665
12.957457 -8.657896 -3.152861
12.925733 -8.751893 -3.158149
12.893932 -8.846231 -3.163582
12.861553 -8.940573 -3.169038
12.793924 -9.010498 -3.165938
12.740431 -9.090282 -3.166444
12.683543 -9.167655 -3.166226
12.627143 -9.245374 -3.166249
12.590810 -9.337981 -3.171446
12.544754 -9.423684 -3.174351
12.501391 -9.511660 -3.178086
12.456224 -9.598538 -3.181517
12.406650 -9.682245 -3.183969
12.368729 -9.775356 -3.189571
12.307350 -9.850131 -3.189269
12.245992 -9.924906 -3.189090
12.199342 -10.011741 -3.192879
12.122528 -10.073814 -3.188893
12.056500 -10.144651 -3.187839
11.989365 -10.214466 -3.186599
11.913646 -10.276782 -3.183175
11.857381 -10.355817 -3.185059
11.792658 -10.427531 -3.184801
11.724612 -10.496254 -3.183757
11.680500 -10.586588 -3.189358
11.624170 -10.666178 -3.191788
11.562090 -10.740632 -3.192778
11.513056 -10.827443 -3.197523
11.455683 -10.906717 -3.200116
11.412242 -10.999642 -3.206774
11.364240 -11.088687 -3.212344
11.306861 -11.168949 -3.215437
11.242642 -11.242642 -3.216732
11.159133 -11.296923 -3.212611
11.075870 -11.351104 -3.208631
10.991775 -11.404079 -3.204481
10.909598 -11.458709 -3.200961
10.844233 -11.530909 -3.202482
10.762421 -11.585545 -3.199255
10.672067 -11.630588 -3.193550
10.582620 -11.676122 -3.188163
10.511799 -11.741977 -3.188473
10.435335 -11.801484 -3.187184
10.357184 -11.858947 -3.185480
10.292702 -11.932102 -3.188106
10.210409 -11.984603 -3.185334
10.128190 -12.036937 -3.182666
10.039282 -12.080974 -3.177962
9.927300 -12.096451 -3.165950
9.813131 -12.108077 -3.153174
9.674738 -12.088203 -3.132480
9.541259 -12.072528 -3.113188
9.415260 -12.064540 -3.096172
9.282988 -12.046728 -3.076925
9.198494 -12.089790 -3.073450
9.091330 -12.102327 -3.062398
8.989557 -12.121015 -3.053112
8.900034 -12.155485 -3.047981
8.792779 -12.164897 -3.036755
8.714226 -12.213371 -3.035451
8.648520 -12.279955 -3.038753
8.598900 -12.370036 -3.047930
8.576749 -12.501145 -3.067210
8.524260 -12.589540 -3.076007
8.477225 -12.687064 -3.087068
8.428227 -12.782835 -3.097729
8.378869 -12.879246 -3.108576
8.358640 -13.022263 -3.130656
8.321955 -13.141803 -3.147059
8.284235 -13.261571 -3.163508
8.238859 -13.370822 -3.177450
8.147218 -13.405583 -3.173771
8.066729 -13.458525 -3.174527
7.982667 -13.505516 -3.173998
7.897226 -13.550087 -3.173025
7.835130 -13.635172 -3.181631
7.762347 -13.702458 -3.186158
7.679500 -13.752294 -3.186729
7.587527 -13.785628 -3.183605
7.475994 -13.782510 -3.172231
7.366301 -13.781381 -3.161509
7.280533 -13.824290 -3.161044
7.210874 -13.898196 -3.167767
7.146859 -13.984050 -3.177280
7.090445 -14.086294 -3.190566
7.015983 -14.153953 -3.196079
6.930408 -14.199612 -3.196727
6.834638 -14.224154 -3.192751
6.726794 -14.222612 -3.183080
6.612777 -14.206424 -3.170316
6.505680 -14.203496 -3.160695
6.432698 -14.274861 -3.167733
6.363794 -14.356490 -3.177122
6.284616 -14.415983 -3.181694
6.202265 -14.468789 -3.184889
6.088448 -14.447435 -3.171906
5.972516 -14.418930 -3.157542
5.876580 -14.437245 -3.153597
5.764379 -14.414255 -3.140790
5.683626 -14.469211 -3.145106
5.607263 -14.536281 -3.152147
5.530395 -14.603237 -3.159248
5.474193 -14.727036 -3.178704
5.385856 -14.766187 -3.179962
5.293849 -14.795318 -3.179180
5.199596 -14.817915 -3.177120
5.093271 -14.805047 -3.167601
5.016366 -14.877639 -3.176486
4.930112 -14.923662 -3.179794
4.844340 -14.971838 -3.183666
4.768324 -15.051599 -3.194344
4.672549 -15.069833 -3.192069
4.579162 -15.095475 -3.191489
4.489419 -15.133291 -3.193600
4.389274 -15.135708 -3.188367
4.305360 -15.194256 -3.195075
4.224754 -15.266300 -3.204713
4.143670 -15.338827 -3.214540
4.058743 -15.399127 -3.221897
3.963720 -15.421954 -3.221524
3.866841 -15.437293 -3.219711
3.766465 -15.437852 -3.214947
3.667021 -15.441099 -3.210877
3.576832 -15.483331 -3.215034
3.486831 -15.527562 -3.219715
3.397909 -15.578096 -3.225810
3.307706 -15.624377 -3.231130
3.215234 -15.661229 -3.234610
3.119350 -15.682032 -3.234892
3.023467 -15.702947 -3.235319
2.928483 -15.728854 -3.236894
2.834351 -15.760058 -3.239675
2.741490 -15.799595 -3.244283
2.645375 -15.821389 -3.245364
2.546488 -15.826390 -3.243124
2.445394 -15.816257 -3.237912
2.345447 -15.811721 -3.233976
2.246390 -15.811775 -3.231107
2.151070 -15.838088 -3.233726
2.054608 -15.856847 -3.234921
1.958164 -15.876378 -3.236394
1.861124 -15.891611 -3.237110
1.762319 -15.891368 -3.234797
1.661522 -15.870772 -3.228468
1.560553 -15.844560 -3.221128
1.461250 -15.831588 -3.216607
1.364925 -15.850055 -3.218597
1.269627 -15.882926 -3.223629
1.173253 -15.905401 -3.226669
1.076176 -15.920271 -3.228285
0.978083 -15.920269 -3.227007
0.878856 -15.898403 -3.221421
0.780957 -15.896748 -3.220054
0.682586 -15.882261 -3.216211
0.585189 -15.887981 -3.216581
0.487983 -15.900793 -3.218508
0.391020 -15.928387 -3.223548
0.293622 -15.949193 -3.227333
0.195877 -15.960705 -3.229358
0.097971 -15.966652 -3.230379
0.000000 -15.959146 -3.228800
-0.097914 -15.957239 -3.228475
-0.195702 -15.946414 -3.226467
-0.293842 -15.961124 -3.229747
-0.391955 -15.966463 -3.231253
-0.490405 -15.979702 -3.234480
-0.588957 -15.990293 -3.237295
-0.686536 -15.974160 -3.234821
-0.784386 -15.966552 -3.234194
-0.881224 -15.941242 -3.230101
-0.978486 -15.926828 -3.228337
-1.076068 -15.918669 -3.227960
-1.173758 -15.912255 -3.228059
-1.271433 -15.905516 -3.228214
-1.368916 -15.896403 -3.228009
-1.466628 -15.889860 -3.228447
-1.561756 -15.856772 -3.223610
-1.659106 -15.847700 -3.223775
-1.757557 -15.848424 -3.226055
-1.855556 -15.844067 -3.227425
-1.954455 -15.846306 -3.230263
-2.053032 -15.844683 -3.232440
-2.147375 -15.810879 -3.228171
-2.240953 -15.773508 -3.223287
-2.331216 -15.715778 -3.214353
-2.425351 -15.686624 -3.211373
-2.514879 -15.629940 -3.202868
-2.606761 -15.590447 -3.197992
-2.703903 -15.582976 -3.199803
-2.799228 -15.564760 -3.199529
-2.898765 -15.569241 -3.204046
-2.999548 -15.578722 -3.209725
-3.106063 -15.615234 -3.221113
-3.218392 -15.676613 -3.237787
-3.325366 -15.707797 -3.248381
-3.428948 -15.720397 -3.255276
-3.522888 -15.688133 -3.253010
-3.611579 -15.633741 -3.246266
-3.702819 -15.591839 -3.242222
-3.788387 -15.527707 -3.233659
-3.875262 -15.470914 -3.226723
-3.965136 -15.427466 -3.222675
-4.056322 -15.389942 -3.219975
-4.154850 -15.380214 -3.223213
-4.249527 -15.355818 -3.223504
-4.346299 -15.338737 -3.225456
-4.441573 -15.316052 -3.226356
-4.525569 -15.255145 -3.219315
-4.611889 -15.203361 -3.214298
-4.697528 -15.150392 -3.209133
-4.779289 -15.086210 -3.201690
-4.878933 -15.078749 -3.206400
-4.978428 -15.069916 -3.210956
-5.077221 -15.058125 -3.215022
-5.182790 -15.065259 -3.223274
-5.276490 -15.037047 -3.224104
-5.376003 -15.024922 -3.228517
-5.471450 -15.000856 -3.230499
-5.557957 -14.952383 -3.227343
-5.651065 -14.921871 -3.228181
-5.733467 -14.863453 -3.223093
-5.821506 -14.820221 -3.221404
-5.908504 -14.774650 -3.219318
-5.986120 -14.706357 -3.212380
-6.062666 -14.636570 -3.205202
-6.131045 -14.548515 -3.194097
-6.197487 -14.457643 -3.182436
-6.265927 -14.373114 -3.172233
-6.344197 -14.312280 -3.167338
-6.426278 -14.260616 -3.164571
-6.519132 -14.232866 -3.167231
-6.608764 -14.197803 -3.168392
-6.708119 -14.183127 -3.174243
-6.808821 -14.170423 -3.180690
-6.886288 -14.109215 -3.176376
-6.966577 -14.054281 -3.173573
-7.045606 -13.997215 -3.170389
-7.109985 -13.911900 -3.160887
-7.186560 -13.851334 -3.157086
-7.263433 -13.791821 -3.153620
-7.322660 -13.699733 -3.142778
-7.409599 -13.660106 -3.144058
-7.514814 -13.653515 -3.153095
-7.624540 -13.653872 -3.163922
-7.745318 -13.672399 -3.179168
-7.857537 -13.674167 -3.190730
-7.943590 -13.629639 -3.191653
-8.027939 -13.582111 -3.191999
-8.106892 -13.525532 -3.190332
-8.169270 -13.441869 -3.182362
-8.242832 -13.377271 -3.178983
-8.329800 -13.334512 -3.180908
-8.420098 -13.296787 -3.184174
-8.515239 -13.266236 -3.189309
-8.605800 -13.228065 -3.192768
-8.672623 -13.153504 -3.187556
-8.741019 -13.081859 -3.183131
-8.812464 -13.015191 -3.180007
-8.869750 -12.928212 -3.171993
-8.965679 -12.897670 -3.177937
-9.041150 -12.837446 -3.176708
-9.127472 -12.792554 -3.179398
-9.221653 -12.758250 -3.184876
-9.269151 -12.659617 -3.174392
-9.353188 -12.611314 -3.176611
-9.427395 -12.549694 -3.175601
-9.491488 -12.474878 -3.171346
-9.611934 -12.473609 -3.185957
-9.712407 -12.445300 -3.193888
-9.826976 -12.434044 -3.206414
-9.936490 -12.415251 -3.217230
-10.011506 -12.352846 -3.216916
-10.092247 -12.297438 -3.218553
-10.162778 -12.229585 -3.217055
-10.232499 -12.160903 -3.215444
-10.319637 -12.112811 -3.219410
-10.391536 -12.046678 -3.218719
-10.474005 -11.992706 -3.221409
-10.543171 -11.923437 -3.220120
-10.597611 -11.837831 -3.214502
-10.656503 -11.757639 -3.210421
-10.711639 -11.673715 -3.205392
-10.768981 -11.592607 -3.201205
-10.852420 -11.539614 -3.204900
-10.928545 -11.478610 -3.206520
-11.001865 -11.414548 -3.207422
-11.063506 -11.338433 -3.205050
-11.112519 -11.249733 -3.199191
-11.172482 -11.172482 -3.196658
-11.213403 -11.076631 -3.188859
-11.250775 -10.977974 -3.180271
-11.305902 -10.897147 -3.176893
-11.362822 -10.818306 -3.174175
-11.417999 -10.738047 -3.171123
-11.488894 -10.672637 -3.172565
-11.535251 -10.584587 -3.167372
-11.581527 -10.496884 -3.162334
-11.646540 -10.426361 -3.162557
-11.702689 -10.347977 -3.160503
-11.784237 -10.291935 -3.165412
-11.881099 -10.248707 -3.174478
-11.951919 -10.182563 -3.176647
-12.016779 -10.111229 -3.177336
-12.069918 -10.030095 -3.175054
-12.136233 -9.959949 -3.176362
-12.174500 -9.866964 -3.170472
-12.218690 -9.779173 -3.166294
-12.298994 -9.720242 -3.171588
-12.354915 -9.641871 -3.170692
-12.419659 -9.570362 -3.172178
-12.474805 -9.491432 -3.171328
-12.487194 -9.380444 -3.159786
-12.511694 -9.279305 -3.151518
-12.544777 -9.185067 -3.145596
-12.564077 -9.081306 -3.136404
-12.645344 -9.022438 -3.142811
-12.722726 -8.960355 -3.148320
-12.811439 -8.905737 -3.156690
-12.910812 -8.857812 -3.167724
-12.943304 -8.763791 -3.162443
-12.957213 -8.657733 -3.152802
-12.984380 -8.561113 -3.146571
-13.023799 -8.472911 -3.143465
-13.111632 -8.416003 -3.152141
-13.202019 -8.360086 -3.161479
-13.284392 -8.298491 -3.168952
-13.380992 -8.245125 -3.179867
-13.432496 -8.163574 -3.180143
-13.487896 -8.084334 -3.181455
-13.551477 -8.009832 -3.184799
-13.584576 -7.917327 -3.181101
-13.669100 -7.854626 -3.189548
-13.744771 -7.786317 -3.195996
-13.823854 -7.719461 -3.203311
-13.913837 -7.658093 -3.213213
-13.946024 -7.564688 -3.209866
-13.962933 -7.463343 -3.203157
-13.975547 -7.360192 -3.195631
-13.974266 -7.250341 -3.185105
-14.018164 -7.164294 -3.185031
-14.082096 -7.088331 -3.189615
-14.161794 -7.019869 -3.197850
-14.251151 -6.955562 -3.208330
-14.321828 -6.881570 -3.214674
-14.394692 -6.808182 -3.221592
-14.403560 -6.704539 -3.214309
-14.408916 -6.599769 -3.206407
-14.437666 -6.506062 -3.203861
-14.469519 -6.413897 -3.202135
-14.532098 -6.335236 -3.207321
-14.568128 -6.244848 -3.206756
-14.580580 -6.144558 -3.201137
-14.554587 -6.028707 -3.187249
-14.542558 -5.919447 -3.176601
-14.532862 -5.811811 -3.166634
-14.568175 -5.722500 -3.166618
-14.600108 -5.631883 -3.165988
-14.623354 -5.538013 -3.163600
-14.657717 -5.448426 -3.163742
-14.677500 -5.353508 -3.160863
-14.762749 -5.282196 -3.172182
-14.843318 -5.208510 -3.182567
-14.880720 -5.119304 -3.183791
-14.880601 -5.017364 -3.177119
-14.872079 -4.913071 -3.168803
-14.915628 -4.826153 -3.171713
-14.938249 -4.732415 -3.170289
-15.012681 -4.654829 -3.179964
-15.140888 -4.592938 -3.201090
-15.251278 -4.524421 -3.218499
-15.373883 -4.458343 -3.238538
-15.490862 -4.389404 -3.257446
-15.579969 -4.311558 -3.270558
-15.625729 -4.221174 -3.274665
-15.689918 -4.135386 -3.282738
-15.717935 -4.039792 -3.283352
-15.738887 -3.942386 -3.282613
-15.736346 -3.839290 -3.277108
-15.731194 -3.735914 -3.271200
-15.755118 -3.639619 -3.271469
-15.754744 -3.537846 -3.266823
-15.766432 -3.438989 -3.264809
-15.737909 -3.331741 -3.254608
-15.711713 -3.225598 -3.245037
-15.678509 -3.118649 -3.234166
-15.636454 -3.010664 -3.221619
-15.592728 -2.903138 -3.208880
-15.588433 -2.803485 -3.204395
-15.619206 -2.710189 -3.207242
-15.623851 -2.612346 -3.204844
-15.667054 -2.520850 -3.210473
-15.701792 -2.427697 -3.214478
-15.736434 -2.334280 -3.218578
-15.798717 -2.244534 -3.228439
-15.844614 -2.151957 -3.235058
-15.915051 -2.062150 -3.246795
-15.950027 -1.967248 -3.251407
-16.012074 -1.875232 -3.261648
-16.076786 -1.782882 -3.272540
-16.186736 -1.694600 -3.292742
-16.339646 -1.609315 -3.321776
-16.575720 -1.529933 -3.367797
-16.764959 -1.443712 -3.404382
-16.870856 -1.348599 -3.424141
-17.027724 -1.256040 -3.454350
-17.034819 -1.151517 -3.454291
-17.072946 -1.048900 -3.460652
-17.123917 -0.946602 -3.469741
-17.064825 -0.838341 -3.456661
-17.007330 -0.730939 -3.444041
-16.956695 -0.624552 -3.432947
-16.916717 -0.519161 -3.424143
-16.861421 -0.413925 -3.412373
-16.899178 -0.311111 -3.419563
-17.053147 -0.209284 -3.450394
-17.186579 -0.105457 -3.477195
-16.900453 0.000000 -3.553783
-16.876246 0.103553 -3.548760
-16.853251 0.206831 -3.544124
-16.834928 0.309928 -3.540605
-16.843043 0.413474 -3.542778
-16.853665 0.517226 -3.545613
-16.882307 0.621812 -3.552374
-16.923235 0.727325 -3.561859
-16.934223 0.831925 -3.565179
-16.939704 0.936419 -3.567475
-16.922736 1.039671 -3.565178
-16.892521 1.141898 -3.560222
-16.874011 1.244702 -3.557863
-16.848069 1.346778 -3.554069
-16.819551 1.448413 -3.549861
-16.800300 1.550661 -3.547739
-16.773816 1.652077 -3.544221
-16.755186 1.754112 -3.542492
-16.775623 1.860382 -3.549159
-16.784525 1.965696 -3.553528
-16.798190 2.071859 -3.559045
-16.810719 2.178203 -3.564464
-16.789060 2.280228 -3.562772
-16.769623 2.382472 -3.561682
-16.740062 2.483154 -3.558573
-16.702947 2.582488 -3.553984
-16.685342 2.684694 -3.553677
-16.665875 2.786575 -3.553105
-16.655725 2.890042 -3.554655
-16.634412 2.991598 -3.553957
-16.610220 3.092580 -3.552776
-16.587245 3.193731 -3.551987
-16.552344 3.292466 -3.548772
-16.540906 3.395830 -3.550721
-16.491011 3.491174 -3.544542
-16.427340 3.583147 -3.535516
-16.381558 3.678602 -3.530454
-16.314563 3.768857 -3.520933
-16.263878 3.862418 -3.515043
-16.235437 3.961056 -3.514083
-16.241844 4.068370 -3.520807
-15.999092 4.112055 -3.473589
-15.886943 4.187316 -3.454753
-15.434871 4.169615 -3.361946
-15.451085 4.275891 -3.371129
-3.267427 0.925840 -0.714116
-14.397558 4.175214 -3.152212
-15.792956 4.685115 -3.463951
-15.588490 4.728717 -3.425404
-15.759195 4.886293 -3.469437
-15.765664 4.994539 -3.477543
-15.625958 5.055990 -3.453505
-15.470394 5.110728 -3.425990
-15.365661 5.180915 -3.409772
-15.290185 5.260169 -3.400122
-15.226729 5.343049 -3.393238
-15.151663 5.421352 -3.383859
-15.095150 5.505843 -3.378719
-15.017884 5.582304 -3.369028
-14.943634 5.659307 -3.360098
-14.879990 5.739845 -3.353644
-14.797616 5.812627 -3.343054
-14.729803 5.890569 -3.335836
-14.676417 5.973933 -3.331985
-14.617805 6.054893 -3.327051
-14.574301 6.141912 -3.325664
-14.539698 6.232661 -3.326432
-14.513083 6.326946 -3.329162
-14.473827 6.415806 -3.329125
-14.437773 6.506111 -3.329952
-14.387351 6.589891 -3.327586
-14.330021 6.670308 -3.323730
-14.279371 6.753639 -3.321531
-14.237050 6.840835 -3.321388
-14.207333 6.934176 -3.324319
-14.170993 7.024430 -3.325839
-14.143899 7.119441 -3.329670
-14.100742 7.206497 -3.329857
-14.041537 7.285244 -3.326370
-13.983817 7.364547 -3.323339
-13.902594 7.431091 -3.314810
-13.828772 7.501088 -3.308120
-13.768446 7.578071 -3.304750
-13.714039 7.658138 -3.302908
-13.679140 7.749137 -3.305892
-13.636773 7.836050 -3.307211
-13.570012 7.908839 -3.302727
-13.487833 7.972214 -3.294570
-13.419945 8.043605 -3.289981
-13.351033 8.114065 -3.285231
-13.312817 8.203117 -3.288151
-13.285211 8.299003 -3.293848
-13.247609 8.388956 -3.297225
-13.201610 8.473758 -3.298656
-13.132326 8.543515 -3.294381
-13.071449 8.618521 -3.292313
-13.009992 8.692999 -3.290207
-12.955155 8.771814 -3.289889
-12.924112 8.866937 -3.295760
-12.875340 8.950157 -3.297265
-12.826872 9.033703 -3.298986
-12.768021 9.109968 -3.298165
-12.706584 9.184309 -3.296790
-12.665034 9.273117 -3.300711
-12.620191 9.359771 -3.303929
-12.594172 9.460807 -3.312253
-12.572816 9.566004 -3.322011
-12.557875 9.676868 -3.333689
-12.545273 9.790427 -3.346228
-12.519100 9.894198 -3.355378
-12.472261 9.982118 -3.359177
-12.424282 10.069403 -3.362832
-12.358899 10.142686 -3.361917
-12.297544 10.219252 -3.362221
-12.241511 10.300324 -3.364118
-12.181964 10.378552 -3.365191
-12.123112 10.457469 -3.366596
-12.063220 10.535589 -3.367853
-11.990487 10.602458 -3.365646
-11.926980 10.677420 -3.366147
-11.865981 10.754698 -3.367493
-11.809763 10.836476 -3.370345
-11.771589 10.935246 -3.378536
-11.725618 11.027347 -3.384699
-11.677282 11.117697 -3.390374
-11.622423 11.202225 -3.394339
-11.564628 11.284216 -3.397618
-11.513343 11.372913 -3.402988
-11.462024 11.462024 -3.408544
-11.415529 11.556485 -3.415740
-11.369099 11.651620 -3.423175
-11.319165 11.743750 -3.429773
-11.272472 11.839848 -3.437573
-11.220202 11.930685 -3.443893
-11.151941 12.004856 -3.445486
-11.082928 12.078351 -3.446996
-11.003527 12.140522 -3.445406
-10.924297 12.202749 -3.443977
-10.849252 12.269590 -3.443989
-10.768937 12.330402 -3.442446
-10.682207 12.383647 -3.438947
-10.583357 12.422355 -3.431598
-10.484414 12.460294 -3.424242
-10.373820 12.483546 -3.413075
-10.266499 12.509766 -3.402956
-10.165556 12.542922 -3.394944
-10.065158 12.576017 -3.387122
-9.972454 12.618117 -3.381916
-9.883825 12.664952 -3.378151
-9.804554 12.723575 -3.377677
-9.728388 12.786242 -3.378403
-9.654423 12.851913 -3.380038
-9.581278 12.918857 -3.382119
-9.504057 12.980447 -3.382912
-9.417229 13.028831 -3.380399
-9.319913 13.062268 -3.374173
-9.216414 13.086302 -3.365710
-9.105642 13.099016 -3.354547
-9.002100 13.121121 -3.345999
-8.897163 13.140282 -3.336901
-8.804342 13.176629 -3.332349
-8.708930 13.208570 -3.326850
-8.611035 13.236112 -3.320416
-8.508024 13.254995 -3.311995
-8.403465 13.270522 -3.302928
-8.296656 13.281455 -3.292917
-8.202075 13.311125 -3.287733
-8.104357 13.335060 -3.281300
-8.012631 13.368267 -3.277312
-7.939025 13.431682 -3.280854
-7.878121 13.517307 -3.289900
-7.827490 13.621877 -3.303599
-7.757187 13.693351 -3.309327
-7.682054 13.756868 -3.313223
-7.595890 13.800821 -3.312521
-7.523710 13.870478 -3.318097
-7.430253 13.901025 -3.314436
-7.336553 13.930662 -3.310706
-7.230635 13.936284 -3.301436
-7.118513 13.928587 -3.289203
-7.016542 13.939475 -3.281546
-6.921805 13.963960 -3.277250
-6.837814 14.009898 -3.278122
-6.755811 14.060100 -3.280107
-6.680010 14.123694 -3.285319
-6.592257 14.162342 -3.284838
-6.525638 14.247069 -3.295141
-6.445303 14.302833 -3.298829
-6.359785 14.347446 -3.300056
-6.275497 14.395067 -3.302090
-6.175022 14.405237 -3.295669
-6.087344 14.444815 -3.296117
-5.991073 14.463729 -3.291982
-5.892139 14.475470 -3.286364
-5.796134 14.493660 -3.282358
-5.691712 14.489796 -3.273512
-5.595590 14.506020 -3.269359
-5.507727 14.543383 -3.270101
-5.416867 14.572815 -3.269184
-5.332275 14.619286 -3.272207
-5.243999 14.655995 -3.273160
-5.146389 14.666283 -3.268344
-5.054381 14.692004 -3.267103
-4.964604 14.724123 -3.267409
-4.875187 14.757403 -3.268095
-4.786818 14.794060 -3.269647
-4.696874 14.826059 -3.270288
-4.599778 14.835131 -3.266002
-4.505834 14.853745 -3.263951
-4.410423 14.867005 -3.260857
-4.323492 14.908869 -3.264159
-4.246174 14.985379 -3.275144
-4.166340 15.055219 -3.284759
-4.088949 15.136263 -3.296905
-4.004825 15.194559 -3.304188
-3.912819 15.223911 -3.305288
-3.821913 15.257930 -3.307520
-3.720809 15.250719 -3.300945
-3.620263 15.244209 -3.294666
-3.520416 15.239118 -3.288835
-3.424168 15.248513 -3.286267
-3.332244 15.277046 -3.287948
-3.241354 15.310954 -3.290903
-3.148434 15.335853 -3.292040
-3.055592 15.361500 -3.293459
-2.960966 15.378338 -3.293112
-2.868798 15.408289 -3.295694
-2.776507 15.438424 -3.298433
-2.682761 15.461130 -3.299705
-2.592009 15.502221 -3.305019
-2.500255 15.539054 -3.309538
-2.409413 15.583535 -3.315801
-2.317421 15.622781 -3.321063
-2.224058 15.654588 -3.324861
-2.129160 15.676767 -3.326734
-2.033270 15.692165 -3.327292
-1.935922 15.696045 -3.325533
-1.838774 15.700768 -3.324081
-1.741062 15.699680 -3.321526
-1.643270 15.696434 -3.318643
-1.546503 15.701905 -3.317731
-1.448547 15.693962 -3.314113
-1.352505 15.705831 -3.314804
-1.256197 15.714919 -3.315033
-1.159998 15.725710 -3.315745
-1.063428 15.731688 -3.315567
-0.967065 15.740925 -3.316201
-0.870730 15.751401 -3.317220
-0.774610 15.767551 -3.319558
-0.677988 15.775270 -3.320245
-0.581893 15.798502 -3.324320
-0.485316 15.813895 -3.326870
-0.388512 15.826244 -3.328904
-0.291641 15.841565 -3.331687
-0.194548 15.852402 -3.333653
-0.097292 15.855927 -3.334206
0.000000 15.859783 -3.334954
0.097334 15.862740 -3.335638
0.194606 15.857114 -3.334644
0.291720 15.845845 -3.332587
0.388495 15.825526 -3.328753
0.485034 15.804691 -3.324934
0.581701 15.793289 -3.323223
0.678380 15.784387 -3.322164
0.775141 15.778356 -3.321833
0.872188 15.777785 -3.322777
0.969184 15.775408 -3.323466
1.066017 15.769984 -3.323639
1.163615 15.774748 -3.326085
1.260798 15.772477 -3.327175
1.358475 15.775155 -3.329435
1.455689 15.771340 -3.330453
1.553233 15.770235 -3.332169
1.650522 15.765707 -3.333290
1.746715 15.750662 -3.332312
1.842587 15.733328 -3.330974
1.938010 15.712969 -3.329119
2.034047 15.698166 -3.328564
2.129899 15.682207 -3.327888
2.225498 15.664724 -3.327014
2.322873 15.659540 -3.328877
2.419669 15.649869 -3.329915
2.516609 15.640697 -3.331186
2.613700 15.631949 -3.332676
2.708155 15.607482 -3.330940
2.803852 15.590474 -3.330919
2.898344 15.566977 -3.329636
2.994233 15.551114 -3.330110
3.090626 15.537627 -3.331220
3.183660 15.507437 -3.328873
3.276535 15.477138 -3.326622
3.366232 15.432867 -3.321483
3.455003 15.385827 -3.315860
3.545776 15.348896 -3.312527
3.636877 15.314170 -3.309787
3.729678 15.287072 -3.308814
3.826066 15.274513 -3.311115
3.919849 15.251263 -3.311226
4.017500 15.242648 -3.314646
4.115749 15.235472 -3.318514
4.209284 15.210399 -3.318616
4.306581 15.198568 -3.321738
4.403074 15.183294 -3.324242
4.499205 15.166275 -3.326498
4.595850 15.150488 -3.329157
4.686471 15.114733 -3.327557
4.778478 15.083650 -3.327106
4.864197 15.033208 -3.322501
4.950978 14.986823 -3.318901
5.041817 14.953124 -3.318227
5.128911 14.908646 -3.315278
5.217519 14.868992 -3.313517
5.304281 14.824473 -3.310787
5.386508 14.767973 -3.305488
5.470713 14.717675 -3.301681
5.553618 14.664560 -3.297348
5.636159 14.611192 -3.293062
5.720207 14.562336 -3.289900
5.806406 14.519347 -3.288175
5.890374 14.471135 -3.285380
5.977174 14.430175 -3.284345
6.061188 14.382750 -3.281954
6.142447 14.329244 -3.278284
6.222373 14.273207 -3.274137
6.306190 14.226537 -3.272246
6.390148 14.180440 -3.270600
6.473151 14.132479 -3.268638
6.555362 14.083079 -3.266454
6.639400 14.037832 -3.265347
6.723609 13.993081 -3.264473
6.812668 13.958376 -3.266067
6.903871 13.927780 -3.268758
6.994639 13.895961 -3.271302
7.085947 13.864866 -3.274156
7.177831 13.834510 -3.277326
7.269198 13.802767 -3.280311
7.366810 13.782331 -3.286135
7.461677 13.756116 -3.290739
7.555868 13.728107 -3.295068
7.642724 13.686435 -3.296260
7.728292 13.642343 -3.296999
7.809423 13.590436 -3.295973
7.888169 13.534547 -3.294096
7.966137 13.477550 -3.292058
8.051264 13.432722 -3.293114
8.128122 13.374163 -3.290922
8.208062 13.320841 -3.290133
8.287223 13.266354 -3.289173
8.361276 13.203898 -3.286346
8.438110 13.146073 -3.284779
8.512045 13.083953 -3.282246
8.580659 13.014024 -3.277850
8.652432 12.949280 -3.274853
8.713492 12.869018 -3.268015
8.775654 12.791062 -3.261831
8.835543 12.710462 -3.255041
8.899302 12.636038 -3.249905
8.964203 12.563726 -3.245392
9.035764 12.501069 -3.243468
9.106070 12.436884 -3.241251
9.178580 12.375883 -3.239970
9.250402 12.314083 -3.238590
9.317590 12.246320 -3.235743
9.393653 12.190341 -3.236121
9.465776 12.129272 -3.235267
9.542400 12.073972 -3.236074
9.622882 12.023411 -3.238287
9.698323 11.966420 -3.238904
9.771166 11.906200 -3.238772
9.832836 11.832543 -3.235087
9.881154 11.743344 -3.227215
9.931858 11.657650 -3.220353
9.980244 11.569877 -3.212962
10.036457 11.491715 -3.208298
10.099550 11.421740 -3.206003
10.165700 11.355375 -3.204823
10.237553 11.295399 -3.205565
10.304747 11.230277 -3.204968
10.379325 11.173149 -3.206779
10.453790 11.115743 -3.208653
10.522502 11.052129 -3.208867
10.594949 10.992369 -3.210331
10.663410 10.928395 -3.210696
10.736966 10.869543 -3.212701
10.814125 10.814125 -3.215873
10.888622 10.755812 -3.218340
10.960820 10.695049 -3.220223
11.024741 10.626152 -3.219786
11.078578 10.547683 -3.216546
11.135944 10.472788 -3.214484
11.195854 10.400416 -3.213296
11.249456 10.322345 -3.210441
11.314987 10.255306 -3.211124
11.367453 10.176513 -3.208232
11.417594 10.095885 -3.204840
11.448801 9.998978 -3.196317
11.478128 9.901102 -3.187484
11.501678 9.798976 -3.177266
11.532905 9.704085 -3.169384
11.579258 9.622357 -3.165837
11.630056 9.544541 -3.163654
11.692278 9.476142 -3.164703
11.743622 9.398955 -3.162931
11.764322 9.297675 -3.153081
11.773780 9.188348 -3.140446
11.766976 9.067416 -3.123732
11.771108 8.956026 -3.110182
11.815702 8.876016 -3.107516
11.902278 8.827331 -3.115982
11.996964 8.783968 -3.126601
12.057688 8.715288 -3.128431
12.100709 8.633841 -3.125789
12.138012 8.548553 -3.121816
12.187102 8.471736 -3.121013
12.240871 8.398181 -3.121528
12.314617 8.338112 -3.127228
12.404287 8.288280 -3.137025
12.506333 8.245918 -3.149977
12.603448 8.199442 -3.161706
12.661964 8.127374 -3.163816
12.696606 8.040037 -3.160085
12.660310 7.908640 -3.138914
12.577621 7.750103 -3.106564
12.541519 7.622084 -3.086037
12.598264 7.551109 -3.088541
12.712387 7.513874 -3.105158
12.864327 7.497553 -3.130975
12.914639 7.421093 -3.132078
12.919416 7.318759 -3.122287
12.992333 7.255126 -3.129091
12.897142 7.098510 -3.095617
12.948452 7.023579 -3.097530
13.076324 6.989441 -3.117801
13.045955 6.870624 -3.100450
13.000597 6.745168 -3.079776
13.058563 6.673869 -3.083749
13.033825 6.560676 -3.068343
13.488544 6.686146 -3.165672
13.486171 6.582198 -3.155577
13.559130 6.515097 -3.163235
13.595967 6.430414 -3.162565
13.661284 6.359026 -3.168622
13.718361 6.283471 -3.172858
13.747034 6.194842 -3.170639
13.781671 6.108995 -3.169922
13.815971 6.023042 -3.169251
13.844456 5.934635 -3.167373
13.875459 5.847405 -3.166197
13.924934 5.767897 -3.169351
13.945839 5.676556 -3.166122
13.962586 5.583752 -3.162086
13.943436 5.477098 -3.150079
13.920072 5.369564 -3.137298
13.913465 5.269171 -3.128463
13.917803 5.173392 -3.122242
13.958261 5.091171 -3.124251
14.012902 5.013897 -3.129536
14.064263 4.935140 -3.134185
14.114563 4.855729 -3.138696
14.151792 4.771628 -3.140404
14.201736 4.691620 -3.145040
14.259359 4.613808 -3.151472
14.322601 4.537379 -3.159236
14.384199 4.459962 -3.166727
14.439230 4.380092 -3.172866
14.481917 4.296184 -3.176394
14.503274 4.205872 -3.175358
14.517906 4.113713 -3.172975
14.543133 4.024627 -3.173032
14.590119 3.941412 -3.177947
14.642726 3.859378 -3.184187
14.701201 3.778473 -3.191801
14.753807 3.695636 -3.198239
14.799393 3.610696 -3.203258
14.837292 3.523626 -3.206721
14.856239 3.431967 -3.206204
14.856599 3.336161 -3.201804
14.843242 3.237622 -3.194584
14.825838 3.138654 -3.186633
14.907693 3.060533 -3.200130
15.031755 2.990002 -3.222763
15.165027 2.919895 -3.247433
15.143759 2.819547 -3.239113
15.293581 2.750458 -3.267488
14.823658 2.572149 -3.163657
14.368072 2.402377 -3.063222
14.278040 2.028491 -3.032497
14.912299 2.025333 -3.164508
15.234871 1.974017 -3.230329
15.207830 1.875707 -3.222094
15.148090 1.774047 -3.207070
15.195659 1.685167 -3.214892
15.261454 1.597732 -3.226677
15.308357 1.507742 -3.234577
15.306960 1.412827 -3.232389
15.261218 1.314217 -3.220966
15.203357 1.215305 -3.207120
15.126950 1.115831 -3.189498
15.055622 1.017727 -3.173082
15.011581 0.922257 -3.162547
14.972128 0.827652 -3.153107
14.939050 0.733908 -3.145133
14.915347 0.641030 -3.139255
14.893506 0.548560 -3.133891
14.879307 0.456635 -3.130255
14.884640 0.365397 -3.130846
14.886305 0.274055 -3.130784
14.911471 0.183000 -3.135781
14.939154 0.091667 -3.141425
14.971530 -0.000000 -3.148174
15.012643 -0.092118 -3.156879
15.058890 -0.184810 -3.166782
15.091631 -0.277835 -3.173966
15.118371 -0.371135 -3.180009
15.147191 -0.464856 -3.186611
15.167077 -0.558637 -3.191456
15.170415 -0.651993 -3.192940
15.184070 -0.745946 -3.196717
15.185913 -0.839470 -3.198129
15.185372 -0.932934 -3.199161
15.185947 -1.026537 -3.200549
15.174341 -1.119327 -3.199490
15.172156 -1.212811 -3.200538
15.147742 -1.304446 -3.197016
15.142484 -1.397646 -3.197656
15.155083 -1.492645 -3.202191
15.157641 -1.586864 -3.204728
15.161413 -1.681369 -3.207647
15.162831 -1.775774 -3.210191
15.126817 -1.865715 -3.204930
