13.713305 2.815327 -4.313439
13.690133 2.723137 -4.300814
13.681031 2.634164 -4.292795
13.691964 2.549244 -4.291237
13.717555 2.467019 -4.294432
13.748789 2.385641 -4.299547
13.749819 2.299003 -4.295377
13.770179 2.215641 -4.297409
13.774179 2.129663 -4.294499
13.793966 2.046142 -4.296672
13.835938 1.965681 -4.305908
13.890739 1.886589 -4.319279
13.964903 1.809465 -4.338806
14.033943 1.730922 -4.356874
14.077341 1.648648 -4.367124
14.103887 1.564092 -4.372300
14.111198 1.477311 -4.371674
14.130962 1.391778 -4.375069
14.180557 1.308860 -4.387855
14.236578 1.225981 -4.402779
14.322877 1.144922 -4.427212
14.394434 1.061797 -4.447232
14.427674 0.975280 -4.455569
14.439639 0.887119 -4.457499
14.423485 0.797323 -4.450918
14.404314 0.707639 -4.443579
14.418854 0.619692 -4.446807
14.442314 0.531942 -4.452952
14.505109 0.445151 -4.471387
14.549548 0.357171 -4.484326
14.559374 0.268036 -4.486763
14.564778 0.178746 -4.488006
14.541951 0.089229 -4.480719
14.547194 -0.000000 -4.482250
14.576271 -0.089440 -4.491294
14.638752 -0.179654 -4.510800
14.724198 -0.271070 -4.537557
14.802979 -0.363393 -4.562436
14.834291 -0.455253 -4.572862
14.853994 -0.547105 -4.579884
14.852261 -0.638319 -4.580471
14.849983 -0.729533 -4.581063
14.860572 -0.821485 -4.585798
14.884830 -0.914470 -4.594929
14.915443 -1.008252 -4.606203
14.935001 -1.101672 -4.614243
14.927144 -1.193225 -4.613991
14.908090 -1.283808 -4.610449
14.872577 -1.372733 -4.601985
14.829474 -1.460576 -4.591334
14.798186 -1.549232 -4.584504
14.769158 -1.637869 -4.578538
14.753062 -1.727784 -4.576749
14.735212 -1.817415 -4.574585
14.687013 -1.903030 -4.563161
14.643976 -1.988890 -4.553495
14.569061 -2.069836 -4.534065
14.487062 -2.148953 -4.512564
14.432148 -2.231394 -4.499639
14.383777 -2.314369 -4.488901
14.351659 -2.399632 -4.483389
14.325901 -2.485780 -4.480022
14.277285 -2.567683 -4.469662
14.226397 -2.648747 -4.458735
14.155575 -2.725534 -4.441697
14.087772 -2.802232 -4.425733
14.035362 -2.881445 -4.414740
13.988195 -2.961324 -4.405536
13.961866 -3.045376 -4.403046
13.923642 -3.126658 -4.396959
13.878238 -3.206037 -4.388751
13.826674 -3.283620 -4.378734
13.767297 -3.358890 -4.366375
13.716235 -3.435738 -4.356784
13.680525 -3.516141 -4.352213
13.671009 -3.603263 -4.356137
13.686125 -3.697205 -4.368100
13.710785 -3.794285 -4.383319
13.731335 -3.890834 -4.397438
13.748007 -3.986848 -4.410529
13.756150 -4.080879 -4.421091
13.774064 -4.178317 -4.435005
13.791046 -4.276049 -4.448837
13.807770 -4.374281 -4.462807
13.828200 -4.474301 -4.478199
13.825238 -4.567242 -4.486231
13.817151 -4.658796 -4.492798
13.798712 -4.747069 -4.496189
13.764769 -4.830048 -4.494702
13.733241 -4.913832 -4.494168
13.683317 -4.990888 -4.487767
13.629195 -5.066114 -4.480127
13.575366 -5.141129 -4.472719
13.507449 -5.210398 -4.460792
13.421303 -5.271999 -4.442941
13.309631 -5.322630 -4.416702
13.205967 -5.375397 -4.393165
13.141155 -5.443244 -4.382633
13.173277 -5.551491 -4.404623
13.148277 -5.636208 -4.407745
13.057632 -5.692446 -4.388984
12.973244 -5.750644 -4.372397
12.867941 -5.798695 -4.348817
12.796512 -5.861234 -4.336750
12.784871 -5.951075 -4.345098
12.802568 -6.055164 -4.363658
12.857942 -6.178180 -4.395370
12.891381 -6.291899 -4.419915
12.877127 -6.383072 -4.428373
12.856930 -6.471635 -4.435000
12.827658 -6.555859 -4.438695
12.788178 -6.634957 -4.439038
12.751019 -6.715297 -4.440359
12.701122 -6.788891 -4.437406
12.644606 -6.858765 -4.432281
12.580750 -6.924370 -4.424707
12.510703 -6.986176 -4.415065
12.445904 -7.050517 -4.407381
12.386201 -7.117438 -4.401622
12.334712 -7.188884 -4.398917
12.313102 -7.277870 -4.407053
12.296588 -7.370291 -4.417246
12.282349 -7.464574 -4.428501
12.257935 -7.553118 -4.436325
12.199887 -7.621022 -4.432158
12.116288 -7.672555 -4.418807
12.019994 -7.715310 -4.400871
11.932504 -7.762946 -4.386196
11.875190 -7.829780 -4.382706
11.841598 -7.912303 -4.388143
11.803694 -7.992171 -4.392187
11.759302 -8.067787 -4.394007
11.702091 -8.134585 -4.391197
11.653807 -8.207537 -4.391894
11.607289 -8.281787 -4.393432
11.576822 -8.367718 -4.401251
11.541637 -8.450585 -4.407505
11.495467 -8.525619 -4.409768
11.442839 -8.595919 -4.409729
11.388095 -8.664611 -4.409038
11.331962 -8.732202 -4.407967
11.262290 -8.789177 -4.401761
11.193411 -8.846468 -4.395973
11.127209 -8.905611 -4.391352
11.071190 -8.972774 -4.390889
11.021196 -9.044862 -4.392990
10.975450 -9.120593 -4.396980
10.931512 -9.198057 -4.401906
10.884622 -9.273268 -4.405854
10.830402 -9.342369 -4.407028
10.771418 -9.407375 -4.406432
10.704548 -9.465381 -4.402753
10.639042 -9.524416 -4.399765
10.585441 -9.594085 -4.401861
10.533320 -9.665229 -4.404765
10.493110 -9.747601 -4.412879
10.457110 -9.834379 -4.423033
10.426829 -9.927166 -4.435906
10.398115 -10.022180 -4.449769
10.360694 -10.109475 -4.460217
10.323334 -10.197419 -4.470986
10.279022 -10.279022 -4.479027
10.236747 -10.363148 -4.488230
10.201732 -10.455244 -4.500920
10.172914 -10.554503 -4.516694
10.154306 -10.665401 -4.537403
10.114639 -10.755116 -4.549081
10.063556 -10.833230 -4.555916
10.013080 -10.912413 -4.563292
9.958512 -10.987524 -4.569063
9.926957 -11.088692 -4.585717
9.917434 -11.215782 -4.613022
9.913996 -11.351497 -4.643734
9.921443 -11.501710 -4.680191
9.923997 -11.648423 -4.715024
9.919595 -11.789030 -4.747211
9.911226 -11.926874 -4.778139
9.891745 -12.053126 -4.804312
9.877768 -12.187830 -4.833755
9.863895 -12.324547 -4.863881
9.856822 -12.471809 -4.898037
9.860056 -12.634494 -4.938074
9.847691 -12.779555 -4.971060
9.835184 -12.926606 -5.004691
9.816962 -13.068284 -5.036128
9.820224 -13.241040 -5.079386
9.879206 -13.492818 -5.152619
9.946091 -13.760516 -5.231443
10.008156 -14.026871 -5.309259
9.937199 -14.109738 -5.317445
9.420388 -13.551797 -5.085298
10.048813 -14.646770 -5.472944
1.172510 -5.538503 -1.744333
3.555582 -17.319047 -5.447603
3.277823 -16.478727 -5.176862
2.867952 -14.895254 -4.673791
2.652433 -14.246192 -4.464939
2.505636 -13.932282 -4.361655
2.491385 -14.358205 -4.490125
2.162973 -12.936255 -4.041223
0.124476 -1.263824 -0.391291
0.273721 -2.965575 -0.917631
0.126848 -1.473006 -0.455539
0.025276 -2.059601 -0.634648
0.041132 -6.703418 -2.065482
0.000000 -12.188803 -3.755588
-0.091103 -14.847299 -4.574804
-0.191173 -15.577392 -4.800034
-0.291264 -15.821078 -4.875583
-0.389554 -15.868691 -4.890900
-0.482439 -15.720144 -4.845937
-0.556932 -15.120807 -4.662150
-0.559874 -13.027013 -4.017561
-0.197618 -4.022608 -1.240932
-0.886779 -9.607610 -2.972859
-1.617283 -16.420555 -5.083947
-1.735671 -16.579038 -5.136215
-1.825172 -16.458127 -5.102130
-1.937289 -16.541963 -5.131709
-2.031997 -16.474993 -5.114705
-2.083963 -16.083402 -4.997010
-2.107462 -15.517004 -4.824960
-1.053354 -7.414296 -2.307417
-0.199414 -1.149253 -0.359397
-1.669185 -9.281299 -2.905613
-2.841869 -15.263652 -4.783824
-3.091331 -16.055414 -5.037823
-3.201001 -16.092519 -5.055533
-3.322543 -16.183929 -5.090559
-3.440683 -16.252511 -5.118675
-3.550084 -16.275757 -5.132761
-3.643591 -16.225646 -5.123911
-3.721583 -16.109924 -5.094483
-3.792252 -15.968423 -5.056999
-3.840031 -15.739383 -4.991833
-3.867666 -15.440590 -4.904503
-3.968540 -15.440710 -4.912184
-4.030399 -15.291589 -4.872520
-3.987933 -14.762327 -4.711584
-3.713251 -13.417964 -4.289704
-2.377296 -8.389831 -2.686830
-1.028955 -3.548187 -1.138302
-1.130811 -3.811828 -1.225084
-3.480070 -11.472253 -3.693863
-4.790348 -15.449753 -4.983918
-4.902034 -15.473665 -5.001240
-4.958098 -15.323416 -4.962418
-5.059879 -15.316472 -4.970130
-5.146167 -15.262605 -4.962804
-5.179114 -15.054574 -4.905401
-5.098692 -14.530356 -4.744694
-5.057437 -14.134589 -4.625508
-5.105832 -13.998456 -4.591125
-4.874266 -13.113074 -4.310471
-1.841192 -4.861745 -1.601814
-5.026112 -12.347863 -4.107704
-6.442038 -15.552454 -5.186812
-6.478851 -15.373834 -5.140402
-6.479104 -15.114605 -5.066924
-6.545839 -15.015190 -5.046966
-6.439765 -14.527877 -4.896358
-6.547298 -14.529172 -4.910242
-1.093930 -2.388317 -0.809403
-1.228794 -2.639855 -0.897188
-7.127313 -15.069437 -5.136303
-7.278337 -15.147574 -5.178060
-7.289211 -14.934760 -5.120504
-7.471280 -15.072464 -5.183337
-7.660714 -15.219225 -5.249874
-7.756382 -15.176685 -5.251518
-7.828219 -15.088063 -5.237375
-7.890529 -14.982552 -5.217458
-7.914024 -14.806097 -5.172823
-7.951304 -14.658777 -5.138303
-8.022683 -14.576253 -5.126535
-8.135684 -14.569219 -5.141521
-8.265748 -14.591086 -5.167040
-8.384679 -14.591530 -5.185319
-8.496826 -14.578883 -5.199254
-8.598568 -14.547533 -5.206792
-8.689176 -14.497015 -5.207695
-8.778684 -14.444610 -5.208122
-8.875714 -14.404373 -5.213153
-8.954543 -14.334613 -5.207693
-9.045671 -14.284675 -5.209617
-9.125054 -14.216291 -5.204999
-9.198713 -14.139437 -5.197429
-9.296878 -14.100293 -5.203911
-9.401834 -14.070839 -5.214234
-9.525443 -14.068195 -5.234814
-9.655777 -14.073896 -5.258883
-9.774554 -14.061285 -5.276482
-9.895197 -14.050100 -5.294970
-9.986119 -13.995985 -5.297568
-10.069524 -13.931287 -5.296366
-10.141937 -13.851651 -5.289650
-10.177337 -13.722551 -5.264098
-10.218869 -13.603300 -5.242307
-10.263165 -13.489110 -5.222472
-10.299017 -13.365250 -5.198887
-10.381950 -13.303239 -5.199447
-10.451412 -13.224142 -5.193499
-10.542476 -13.172407 -5.198489
-10.651369 -13.142349 -5.212321
-10.731279 -13.076102 -5.212065
-10.826640 -13.028456 -5.219455
-10.897213 -12.950888 -5.215069
-10.946009 -12.848023 -5.200595
-10.988967 -12.739266 -5.183769
-11.004479 -12.600097 -5.154518
-11.002462 -12.442857 -5.117715
-10.998645 -12.285798 -5.080779
-10.992341 -12.128179 -5.043394
-10.999592 -11.987530 -5.012879
-11.003366 -11.844918 -4.981382
-11.033658 -11.732329 -4.962412
-11.059865 -11.616540 -4.942047
-11.071852 -11.487160 -4.915815
-11.087807 -11.363338 -4.891849
-11.076428 -11.213197 -4.856382
-11.046569 -11.046569 -4.813481
-11.032706 -10.898138 -4.778212
-11.018460 -10.751292 -4.743382
-11.026300 -10.627654 -4.718595
-11.051591 -10.521989 -4.701700
-11.072402 -10.413030 -4.683283
-11.083316 -10.295874 -4.661090
-11.087200 -10.173461 -4.636384
-11.108176 -10.067864 -4.619235
-11.143067 -9.975635 -4.608204
-11.191078 -9.895590 -4.602861
-11.261640 -9.835518 -4.606974
-11.322023 -9.766444 -4.607074
-11.384783 -9.699386 -4.608308
-11.432831 -9.619880 -4.603777
-11.451103 -9.515860 -4.587536
-11.453617 -9.399741 -4.565351
-11.461515 -9.289118 -4.545694
-11.494965 -9.199943 -4.536486
-11.554386 -9.131757 -4.537739
-11.618165 -9.066905 -4.540852
-11.678307 -8.999089 -4.542690
-11.700089 -8.901991 -4.529831
-11.706448 -8.793944 -4.511317
-11.772007 -8.730716 -4.515851
-11.826559 -8.659200 -4.516310
-11.907011 -8.606379 -4.526782
-12.043566 -8.593070 -4.558565
-12.181055 -8.578867 -4.590595
-12.380270 -8.606014 -4.645683
-12.603483 -8.646961 -4.709445
-12.853836 -8.703212 -4.782948
-13.056918 -8.724354 -4.838505
-13.160345 -8.677134 -4.857010
-13.232950 -8.608978 -4.864219
-13.229375 -8.491579 -4.843661
-13.250001 -8.390471 -4.832272
-13.278084 -8.294551 -4.823861
-13.234714 -8.154991 -4.789836
-13.191910 -8.017358 -4.756451
-13.120083 -7.863875 -4.713066
-13.005082 -7.686877 -4.654724
-13.000033 -7.576645 -4.636190
-12.980849 -7.459139 -4.612939
-12.908788 -7.312738 -4.571299
-12.800715 -7.148124 -4.517411
-12.567922 -6.917309 -4.420196
-12.258939 -6.649569 -4.297094
-11.889024 -6.354816 -4.153682
-11.689529 -6.156265 -4.070710
-11.560929 -5.998217 -4.013035
-11.320502 -5.785594 -3.917181
-12.381219 -6.232182 -4.270904
-13.205101 -6.545646 -4.541162
-13.475975 -6.577222 -4.620348
-13.737953 -6.601021 -4.696194
-14.068034 -6.653685 -4.794982
-14.348323 -6.678827 -4.876457
-14.675016 -6.721652 -4.973376
-14.873897 -6.702642 -5.026744
-15.174891 -6.726567 -5.114423
-14.834848 -6.467219 -4.986349
-15.008396 -6.433576 -5.031319
-3.704632 -1.561208 -1.238682
-14.093404 -3.530214 -4.476587
-15.976070 -3.897777 -5.066900
-17.069599 -4.053764 -5.405728
-17.610452 -4.068222 -5.568999
-17.773604 -3.991196 -5.612743
-17.782376 -3.878709 -5.607891
-17.963218 -3.802843 -5.657457
-18.162735 -3.728790 -5.712981
-18.189965 -3.618209 -5.714455
-18.178050 -3.500027 -5.703857
-18.112851 -3.372348 -5.676800
-18.110339 -3.257035 -5.669642
-18.140089 -3.147604 -5.672802
-18.168510 -3.037819 -5.675754
-18.227222 -2.932785 -5.688367
-18.279402 -2.826228 -5.699132
-18.338151 -2.720208 -5.712137
-18.377659 -2.610926 -5.719346
-18.385540 -2.497056 -5.716922
-18.404358 -2.384695 -5.718116
-18.426496 -2.272691 -5.720554
-18.453252 -2.161127 -5.724636
-18.518024 -2.053610 -5.740712
-18.564407 -1.943520 -5.751286
-18.630527 -1.834947 -5.768173
-18.719064 -1.727763 -5.792194
-18.729759 -1.612910 -5.792332
-18.706203 -1.495311 -5.782101
-18.623296 -1.373737 -5.753760
-18.590870 -1.256703 -5.741251
-18.608372 -1.143230 -5.744382
-18.578099 -1.026988 -5.732984
-18.557145 -0.911654 -5.724683
-18.476841 -0.794096 -5.698300
-18.401960 -0.677784 -5.673817
-18.558565 -0.569548 -5.720918
-18.670728 -0.458341 -5.754518
-18.545036 -0.341411 -5.715025
-18.473376 -0.226714 -5.692406
-18.517846 -0.113626 -5.705787
-17.847190 3.778279 -5.773800
-17.835623 3.890323 -5.777671
-17.338864 3.893572 -5.624385
-17.350517 4.008174 -5.636036
-17.558131 4.169783 -5.711680
-17.403161 4.245953 -5.669637
-17.239077 4.318164 -5.624707
-17.170403 4.413103 -5.611030
-17.607769 4.640874 -5.763152
-17.251148 4.660269 -5.655680
-16.767851 4.640289 -5.506465
-15.325643 4.342589 -5.041508
-14.525272 6.332260 -5.015088
-14.731389 6.529976 -5.099992
-13.881492 6.255433 -4.818956
-13.315608 6.098997 -4.635414
-1.453688 0.731725 -0.515089
-12.617022 6.448209 -4.484557
-13.027070 6.758903 -4.644957
-12.314679 6.485500 -4.405052
-11.864759 6.341846 -4.257952
-11.582777 6.282801 -4.170512
-11.255404 6.194908 -4.066248
-12.057601 6.733156 -4.370902
-12.352849 6.997803 -4.493410
-12.217764 7.020650 -4.459859
-11.978513 6.981285 -4.388079
-11.305322 6.682204 -4.156412
-10.069163 6.035224 -3.715481
-1.329884 0.808234 -0.492543
-9.100712 5.685031 -3.396171
-12.352512 7.822142 -4.627490
-11.850135 7.606282 -4.456690
-11.625929 7.563496 -4.389740
-11.495503 7.579438 -4.357972
-11.406331 7.621467 -4.341814
-11.241145 7.611274 -4.296633
-11.117121 7.627201 -4.267035
-11.067205 7.693250 -4.265915
-11.103327 7.819845 -4.298253
-11.171228 7.970658 -4.343389
-11.142156 8.053542 -4.351217
-11.062436 8.099723 -4.339412
-10.958623 8.127469 -4.318171
-10.796676 8.110518 -4.273886
-10.676857 8.123467 -4.246107
-10.585435 8.156942 -4.229575
-10.494290 8.189824 -4.213156
-10.444000 8.254188 -4.213221
-10.415905 8.336322 -4.222442
-10.364439 8.399980 -4.222394
-10.307455 8.459110 -4.220246
-10.275893 8.539261 -4.228696
-10.299412 8.666192 -4.260177
-10.376795 8.840620 -4.314542
-10.405117 8.975515 -4.349135
-10.388257 9.072736 -4.365275
-10.320549 9.125834 -4.360271
-10.134601 9.072824 -4.305150
-9.863504 8.939759 -4.213212
-9.277856 8.513232 -3.985289
-8.501266 7.897272 -3.672452
-4.024405 3.784748 -1.748497
-0.827679 0.788016 -0.361699
-1.084843 1.045621 -0.476875
-5.819501 5.678393 -2.573402
-7.868956 7.772977 -3.500703
-7.830577 7.830577 -3.504938
-6.944191 7.029936 -3.127443
-5.188513 5.317447 -2.351392
-3.725513 3.865258 -1.699089
-4.450253 4.674247 -2.042662
-6.786229 7.215945 -3.135137
-7.770115 8.364384 -3.613321
-7.420739 8.087239 -3.473862
-5.155642 5.688374 -2.429798
-9.276287 10.888165 -4.527163
-9.631269 11.446367 -4.734596
-9.304403 11.196641 -4.607599
-9.043154 11.019116 -4.511625
-8.681683 10.712023 -4.363997
-8.265246 10.327098 -4.186442
-3.484924 4.409464 -1.778825
-0.903608 1.157866 -0.464850
-4.135685 5.366965 -2.144454
-7.729822 10.159481 -4.040351
-7.305803 9.725443 -3.849837
-5.466659 7.370936 -2.904467
-7.271128 10.190806 -3.962200
-8.510868 12.084504 -4.678080
-8.217757 11.821739 -4.556754
-8.022203 11.692860 -4.488019
-8.032971 11.863951 -4.534684
-7.997519 11.969133 -4.556044
-7.908882 11.995161 -4.547394
-7.855023 12.074037 -4.558938
-7.803308 12.157089 -4.572132
-7.750496 12.239370 -4.585105
-7.725888 12.367758 -4.615355
-7.670443 12.448341 -4.627776
-7.618801 12.536116 -4.642940
-7.459106 12.444766 -4.592070
-7.122530 12.050290 -4.430300
-6.899531 11.838239 -4.336692
-6.993336 12.170230 -4.442507
-5.145014 9.082221 -3.303703
-6.883671 12.327138 -4.468610
-6.852990 12.451060 -4.498204
-6.587423 12.144367 -4.372719
-6.401018 11.975462 -4.297680
-6.306371 11.974550 -4.283385
-6.274242 12.092937 -4.311881
-6.246634 12.222606 -4.344367
-6.156155 12.230179 -4.333551
-6.023069 12.150862 -4.292270
-5.898994 12.086363 -4.256620
-5.756017 11.979342 -4.206411
-5.665475 11.978641 -4.193879
-5.571087 11.968533 -4.178293
-5.341932 11.662749 -4.060022
-5.284360 11.726573 -4.070876
-5.513512 12.438284 -4.306121
-5.494207 12.602901 -4.351358
-5.309307 12.385675 -4.265029
-5.117288 12.142946 -4.170554
-4.930800 11.904004 -4.078020
-4.697587 11.540764 -3.943634
-2.949478 7.375389 -2.514038
-0.987709 2.514480 -0.855025
-1.588255 4.117397 -1.396742
-4.530300 11.962445 -4.048505
-4.886592 13.146233 -4.438909
-4.722006 12.946135 -4.361479
-4.598852 12.852932 -4.320492
-4.515279 12.867735 -4.316073
-4.444745 12.919921 -4.324348
-4.370227 12.961308 -4.329144
-4.278533 12.951305 -4.316953
-4.166997 12.878452 -4.284066
-4.075228 12.863784 -4.270788
-3.988127 12.862444 -4.262138
-3.920640 12.924619 -4.274689
-3.863583 13.023673 -4.299528
-3.829643 13.205911 -4.351851
-3.815693 13.466149 -4.429811
-3.722348 13.450838 -4.417177
-3.604215 13.341899 -4.374057
-3.467362 13.155393 -4.305856
-3.425768 13.328903 -4.355685
-3.247707 12.965573 -4.230363
-3.302555 13.536394 -4.409914
-2.963730 13.587553 -4.401552
-2.921949 13.802206 -4.465194
-2.826673 13.768570 -4.448618
-2.719317 13.670930 -4.411596
-2.650658 13.766695 -4.437167
-2.453514 13.177798 -4.242427
-2.447572 13.609420 -4.376465
-1.952076 12.625584 -4.043458
-2.112817 14.243456 -4.557359
-2.004449 14.108816 -4.510259
-1.891037 13.923495 -4.447223
-1.800233 13.893660 -4.434082
-1.706764 13.838079 -4.412918
-1.624032 13.867154 -4.418929
-1.540429 13.890515 -4.423278
-1.451293 13.862679 -4.411495
-1.358437 13.792446 -4.386410
-1.267838 13.736116 -4.365939
-1.182624 13.733098 -4.362591
-1.097866 13.734210 -4.360722
-1.014743 13.756535 -4.365752
-0.932892 13.800625 -4.377845
-0.852648 13.878550 -4.400822
-0.770486 13.938001 -4.418091
-0.686165 13.967204 -4.425930
-0.601748 14.001348 -4.435496
-0.516560 14.024685 -4.441801
-0.431260 14.052471 -4.449680
-0.345973 14.093364 -4.461872
-0.261158 14.185753 -4.490530
-0.175164 14.272940 -4.517704
-0.087856 14.318186 -4.531769
0.000000 14.337047 -4.537654
0.087023 14.182425 -4.488800
0.171117 13.943204 -4.413335
0.252209 13.699696 -4.336668
0.329094 13.405811 -4.244197
0.395414 12.884447 -4.079828
0.473733 12.861926 -4.073540
0.533866 12.421884 -3.935137
0.577240 11.749997 -3.723341
0.153395 2.774889 -0.879589
0.389771 5.283993 -1.676919
1.085570 13.580381 -4.311880
1.179549 13.697395 -4.351249
1.161497 12.583980 -3.999740
1.261569 12.808930 -4.073622
0.371109 2.732436 -0.872752
1.596494 11.237321 -3.592309
1.769244 11.927272 -3.816269
1.607332 10.395861 -3.329369
0.809633 5.031856 -1.613058
0.197988 1.100886 -0.354019
1.096543 5.889525 -1.896059
1.905824 9.898256 -3.190324
2.111212 10.613779 -3.425056
2.030640 9.891137 -3.195821
1.838699 8.685331 -2.809818
1.714994 7.862583 -2.547005
1.907721 8.495466 -2.755761
2.426756 10.504902 -3.412348
2.742512 11.548177 -3.756635
2.845687 11.663801 -3.799856
2.848860 11.373285 -3.710837
2.749542 10.697856 -3.495899
2.447067 9.284329 -3.038829
2.058512 7.620097 -2.498201
2.016228 7.285710 -2.392585
2.479962 8.752157 -2.879101
2.925701 10.088811 -3.324648
3.087524 10.407672 -3.435903
3.048503 10.049566 -3.323794
2.719988 8.772462 -2.906870
2.082037 6.572118 -2.181949
1.522943 4.706782 -1.565729
1.529918 4.631127 -1.543656
2.135399 6.333210 -2.115325
2.750483 7.995064 -2.675979
2.878280 8.202580 -2.751295
2.575679 7.198540 -2.419777
1.575120 4.318443 -1.454859
0.619469 1.666535 -0.562716
0.524085 1.287541 -0.439970
0.543623 1.312421 -0.449603
3.221976 2.711054 -1.332716
7.371900 6.126045 -3.033656
7.649040 6.277405 -3.131794
5.768351 4.675027 -2.349983
0.942172 0.754063 -0.381941
1.684490 1.217548 -0.657824
8.125007 5.797183 -3.159014
10.148397 7.147307 -3.928586
10.091157 7.014761 -3.889692
9.597941 6.584927 -3.683935
8.745332 5.921383 -3.342674
2.381887 1.591526 -0.906664
1.811798 1.085950 -0.668546
5.719168 3.380412 -2.102657
7.879192 4.592130 -2.886378
7.897921 4.538354 -2.882983
6.152848 3.485545 -2.238129
2.402040 1.341338 -0.870744
0.877580 0.441736 -0.310955
0.899506 0.445877 -0.317749
2.733316 0.996957 -0.920839
2.462506 0.881099 -0.827767
1.638698 0.410472 -0.534669
1.301382 0.317506 -0.423967
9.692624 -3.268109 -3.237386
11.482324 -3.950179 -3.843179
10.605596 -3.721497 -3.557311
3.195571 -1.143394 -1.074186
8.907219 -3.562070 -3.036190
13.372479 -5.443174 -4.569556
13.107287 -5.429216 -4.490235
12.325727 -5.194316 -4.233331
11.997355 -5.142848 -4.131310
9.380763 -4.089523 -3.238862
3.495127 -1.549283 -1.210009
10.950860 -4.934799 -3.801588
12.866099 -5.893107 -4.478931
12.405095 -5.774298 -4.330700
11.974659 -5.663592 -4.192485
11.758432 -5.649871 -4.128841
11.027380 -5.382135 -3.883663
8.495061 -4.341590 -3.019460
12.743889 -6.611979 -4.543985
12.365624 -6.512329 -4.423275
12.248817 -6.547129 -4.395780
12.278741 -6.660310 -4.421102
12.334343 -6.788749 -4.456037
12.288146 -6.861897 -4.454475
12.216846 -6.920758 -4.443939
12.127286 -6.968659 -4.426831
11.995314 -6.991077 -4.394234
11.874326 -7.018523 -4.365606
11.794987 -7.069643 -4.352304
11.768019 -7.151991 -4.358464
11.790138 -7.264870 -4.383083
11.816837 -7.381739 -4.409765
11.825859 -7.488643 -4.430195
11.826846 -7.591334 -4.447931
11.837721 -7.701283 -4.469709
11.841128 -7.807322 -4.489000
11.844834 -7.914465 -4.508730
11.811376 -7.997373 -4.514588
11.745880 -8.058579 -4.508369
11.663704 -8.107900 -4.495839
11.586094 -8.159848 -4.485138
11.504229 -8.208254 -4.472860
11.422238 -8.255985 -4.460594
11.344764 -8.306439 -4.450160
11.271433 -8.359464 -4.441432
11.204140 -8.416607 -4.435182
11.159545 -8.490720 -4.438069
11.123898 -8.571872 -4.444726
11.094544 -8.658267 -4.454141
11.056233 -8.738053 -4.460202
10.985533 -8.792221 -4.453361
10.933240 -8.860971 -4.454119
10.925896 -8.966651 -4.473458
10.907547 -9.064166 -4.488632
10.799828 -9.087255 -4.467166
10.648608 -9.072194 -4.427559
10.579860 -9.126250 -4.422174
10.576122 -9.236811 -4.444218
10.583784 -9.358597 -4.471484
10.566800 -9.459742 -4.488747
10.519401 -9.534230 -4.493379
10.454950 -9.593318 -4.490909
10.392603 -9.654234 -4.489488
10.347770 -9.731550 -4.495832
10.318648 -9.824170 -4.509285
10.297303 -9.925013 -4.526485
10.276959 -10.027770 -4.544504
10.259915 -10.134773 -4.564381
10.242606 -10.242606 -4.584554
10.236864 -10.363267 -4.610359
10.220783 -10.474768 -4.631976
10.200976 -10.583617 -4.652343
10.173813 -10.685890 -4.669771
10.147246 -10.789787 -4.687877
10.112908 -10.886357 -4.702785
10.085251 -10.991067 -4.721197
10.050522 -11.089042 -4.736702
10.022611 -11.195540 -4.755834
10.015836 -11.327066 -4.785509
10.014092 -11.466107 -4.818201
10.006452 -11.600259 -4.848681
9.993983 -11.730570 -4.877425
9.936162 -11.808719 -4.884477
9.870175 -11.877475 -4.887773
9.835755 -11.984902 -4.907053
9.849031 -12.152372 -4.950784
9.868048 -12.329736 -4.998279
9.879847 -12.500942 -5.043013
9.925582 -12.718458 -5.106096
9.993609 -12.968917 -5.181932
10.045664 -13.203245 -5.250833
10.073505 -13.409792 -5.308294
10.075565 -13.585327 -5.353206
10.052998 -13.730180 -5.385876
10.021056 -13.864231 -5.414238
9.989808 -14.001155 -5.443669
9.978483 -14.168357 -5.484768
10.012399 -14.403440 -5.551885
10.077937 -14.689220 -5.638098
10.143170 -14.980519 -5.725910
9.909241 -14.830227 -5.645118
9.252403 -14.032838 -5.319882
9.591263 -14.742830 -5.566626
9.112346 -14.993623 -5.553115
9.375085 -15.641385 -5.771609
9.356679 -15.830146 -5.819967
9.498440 -16.297456 -5.970234
9.543073 -16.607440 -6.062225
9.601531 -16.949073 -6.165310
9.366403 -16.773165 -6.080302
9.027123 -16.401201 -5.925274
8.587996 -15.832562 -5.700696
1.509575 -15.326969 -4.874434
1.485951 -16.099213 -5.117035
1.410767 -16.382393 -5.204192
1.296021 -16.213111 -5.147793
1.213243 -16.447535 -5.219763
1.104076 -16.333010 -5.181170
1.002173 -16.312375 -5.172576
0.901622 -16.310235 -5.170046
0.798269 -16.249142 -5.149031
0.697509 -16.229489 -5.141350
0.596691 -16.200254 -5.130832
0.496717 -16.185380 -5.125060
0.396877 -16.166986 -5.118368
0.297519 -16.160854 -5.115752
0.197953 -16.129889 -5.105470
0.099075 -16.146500 -5.110439
0.000000 -16.258244 -5.145709
-0.100455 -16.371401 -5.181621
-0.202324 -16.486045 -5.218201
-0.305043 -16.569565 -5.245131
-0.407579 -16.602920 -5.256382
-0.510040 -16.619515 -5.262527
-0.611180 -16.593648 -5.255425
-0.712574 -16.580018 -5.252395
-0.814554 -16.580628 -5.254072
-0.917558 -16.598526 -5.261429
-1.022967 -16.650840 -5.279902
-1.129733 -16.712557 -5.301570
-1.237709 -16.779213 -5.325024
-1.347860 -16.861611 -5.353697
-1.457735 -16.927797 -5.377451
-1.568245 -16.990803 -5.400421
-1.677876 -17.035761 -5.417881
-1.786860 -17.067997 -5.431518
-1.896080 -17.097522 -5.444513
-2.003896 -17.110702 -5.452523
-2.111746 -17.121582 -5.460016
-2.218322 -17.120343 -5.463859
-2.323132 -17.104959 -5.463396
-2.426870 -17.082133 -5.460759
-2.528611 -17.046509 -5.454228
-2.628841 -17.002749 -5.445285
-2.730523 -16.970168 -5.440114
-2.836582 -16.964955 -5.443920
-2.948368 -16.991861 -5.458256
-3.058647 -17.007228 -5.469119
-3.170417 -17.028280 -5.482041
-3.280583 -17.038326 -5.491652
-3.388743 -17.036362 -5.497618
-3.493022 -17.014322 -5.497319
-3.592657 -16.970380 -5.490140
-3.686582 -16.901549 -5.475087
-3.774060 -16.806654 -5.451746
-3.858553 -16.702838 -5.425648
-3.944866 -16.611050 -5.403593
-4.036337 -16.543995 -5.389736
-4.136823 -16.515123 -5.388498
-4.242813 -16.507844 -5.394515
-4.353712 -16.518259 -5.406547
-4.464564 -16.526697 -5.418173
-4.571287 -16.518510 -5.424583
-4.671764 -16.487351 -5.423662
-4.767206 -16.438946 -5.417259
-4.856032 -16.369096 -5.403959
-4.940893 -16.287942 -5.387074
-5.023270 -16.200971 -5.368403
-5.105829 -16.116959 -5.350845
-5.188582 -16.035744 -5.334351
-5.277654 -15.975686 -5.325045
-5.370651 -15.928385 -5.320163
-5.464855 -15.885161 -5.316826
-5.564412 -15.857575 -5.318920
-5.663492 -15.828400 -5.320690
-5.762666 -15.799271 -5.322685
-5.864011 -15.775751 -5.326782
-5.964236 -15.748814 -5.329944
-6.066998 -15.728102 -5.335433
-6.164561 -15.693560 -5.336446
-6.258754 -15.650477 -5.334755
-6.348259 -15.596039 -5.329376
-6.434767 -15.534901 -5.321876
-6.526907 -15.487868 -5.319383
-6.624903 -15.454728 -5.321863
-6.725161 -15.426529 -5.326262
-6.829131 -15.406272 -5.333635
-6.933830 -15.386929 -5.341568
-7.046041 -15.383238 -5.355194
-7.170548 -15.404702 -5.377882
-7.287530 -15.408188 -5.394608
-7.404006 -15.409115 -5.410737
-7.510933 -15.389042 -5.419769
-7.610793 -15.353914 -5.423743
-7.698790 -15.294869 -5.419471
-7.774930 -15.212978 -5.407256
-7.833170 -15.097605 -5.383231
-7.888807 -14.979283 -5.358200
-7.943299 -14.860867 -5.333177
-8.015864 -14.777797 -5.320916
-8.108795 -14.732708 -5.322496
-8.225185 -14.729494 -5.339468
-8.347951 -14.736194 -5.360364
-8.479176 -14.755980 -5.386385
-8.606710 -14.767422 -5.409738
-8.742640 -14.791282 -5.438028
-8.872257 -14.802466 -5.462052
-8.986167 -14.786007 -5.476221
-9.087770 -14.748518 -5.482886
-9.081418 -14.537718 -5.425133
-8.874951 -14.015080 -5.250320
-8.732749 -13.605103 -5.116712
-8.914265 -13.702210 -5.173706
-8.966182 -13.598736 -5.155313
-9.122142 -13.652250 -5.196722
-9.369897 -13.838467 -5.289391
-9.620228 -14.022080 -5.382033
-9.814666 -14.118988 -5.442242
-9.939851 -14.113504 -5.463534
-10.041716 -14.073907 -5.471955
-10.094169 -13.965383 -5.453740
-10.134052 -13.840882 -5.429301
-10.152111 -13.688536 -5.393875
-10.167763 -13.535268 -5.357964
-10.193903 -13.398078 -5.328317
-10.200710 -13.237675 -5.289319
-10.209054 -13.081694 -5.251925
-10.256549 -12.977581 -5.235294
-10.329932 -12.906841 -5.232228
-10.456670 -12.902117 -5.256225
-10.594864 -12.909879 -5.285772
-10.727618 -12.909296 -5.312384
-10.852342 -12.897562 -5.334858
-10.946914 -12.849086 -5.342490
-11.014995 -12.769441 -5.337376
-11.056874 -12.660089 -5.319927
-11.061385 -12.509494 -5.285067
-11.061079 -12.355538 -5.248598
-11.057619 -12.200203 -5.211337
-11.049689 -12.042127 -5.172678
-11.060954 -11.906910 -5.143652
-11.097442 -11.800152 -5.126853
-11.146557 -11.707595 -5.116259
-11.200896 -11.621045 -5.108375
-11.241212 -11.520555 -5.094426
-11.233709 -11.372420 -5.059307
-11.129082 -11.129082 -4.981337
-10.952172 -10.818587 -4.872349
-10.817629 -10.555330 -4.783590
-10.770822 -10.381412 -4.734634
-10.757603 -10.242089 -4.701109
-10.779550 -10.137618 -4.683429
-10.877301 -10.104496 -4.698873
-10.992457 -10.086527 -4.721794
-11.129863 -10.087520 -4.754139
-11.258255 -10.078755 -4.782475
-11.350858 -10.036874 -4.795561
-11.417238 -9.971412 -4.797666
-11.446944 -9.874202 -4.784599
-11.477309 -9.778215 -4.772122
-11.509032 -9.683997 -4.760516
-11.542199 -9.591561 -4.749802
-11.544297 -9.474159 -4.726653
-11.569192 -9.376385 -4.713201
-11.591482 -9.277190 -4.699003
-11.650101 -9.207404 -4.699775
-11.747641 -9.167949 -4.716341
-11.865841 -9.143600 -4.741181
-11.976565 -9.112348 -4.762992
-12.083528 -9.077208 -4.783289
-12.081295 -8.960099 -4.760552
-11.929081 -8.734265 -4.679367
-11.879816 -8.586722 -4.639287
-12.118619 -8.646620 -4.711736
-12.230374 -8.613601 -4.734548
-12.281678 -8.537479 -4.734040
-12.573131 -8.626137 -4.825889
-12.913035 -8.743296 -4.935669
-12.602683 -8.420844 -4.797205
-12.281856 -8.097911 -4.656080
-12.286636 -7.570803 -4.567661
-12.837453 -7.801938 -4.754545
-12.841770 -7.697060 -4.738562
-12.767599 -7.546508 -4.694019
-12.907851 -7.522920 -4.728523
-12.928286 -7.428934 -4.719221
-12.920303 -7.319261 -4.699825
-12.975832 -7.245912 -4.703762
-12.977170 -7.142557 -4.688272
-12.995426 -7.049059 -4.679153
-13.086500 -6.994880 -4.696403
-13.211485 -6.957800 -4.725846
-13.341519 -6.922050 -4.757078
-13.491026 -6.894888 -4.795211
-13.630496 -6.861015 -4.829729
-13.815758 -6.848343 -4.880392
-13.999247 -6.832616 -4.930306
-14.169596 -6.808423 -4.975494
-14.381996 -6.802177 -5.035325
-14.556232 -6.775604 -5.081675
-14.735823 -6.749503 -5.129817
-14.958384 -6.740714 -5.192799
-15.147254 -6.714316 -5.243964
-15.238853 -6.643344 -5.261464
-15.243687 -6.534437 -5.249191
-14.747745 -6.215004 -5.065185
-15.523209 -6.429924 -5.317871
-16.450205 -5.211401 -5.461483
-17.911415 -5.553610 -5.935181
-17.673969 -4.891046 -5.804029
-17.878908 -4.829854 -5.861487
-17.005956 -4.482254 -5.566174
-16.187495 -4.160477 -5.289830
-17.116262 3.843585 -5.699906
-17.704800 4.090018 -5.904142
-18.003309 4.275506 -6.012323
-16.557110 4.039537 -5.537529
-15.945614 6.376782 -5.579979
-15.882952 6.465045 -5.571828
-15.344227 6.355787 -5.396420
-15.159462 6.388510 -5.345125
-15.146719 6.492870 -5.354578
-14.970599 6.526399 -5.306375
-14.854350 6.584481 -5.279391
-14.761653 6.652061 -5.260853
-14.676842 6.722488 -5.245230
-14.585515 6.789235 -5.227381
-14.465893 6.841858 -5.199457
-14.339090 6.889864 -5.168978
-14.213646 6.937257 -5.139006
-14.042311 6.960643 -5.092405
-13.913122 7.003277 -5.061044
-13.803758 7.054717 -5.036913
-13.692333 7.104065 -5.012066
-13.605814 7.165473 -4.996396
-13.513249 7.222982 -4.978586
-13.418058 7.278306 -4.959876
-13.327846 7.335567 -4.943074
-13.228808 7.387178 -4.923062
-13.110007 7.426727 -4.895717
-13.003353 7.472070 -4.872918
-12.887251 7.510914 -4.846590
-12.793651 7.561907 -4.828748
-12.698431 7.611147 -4.810345
-12.587330 7.649926 -4.785949
-12.481377 7.690799 -4.763517
-12.360346 7.721258 -4.735318
-12.259323 7.763131 -4.714776
-12.162295 7.806650 -4.695795
-12.075221 7.855793 -4.680698
-12.013612 7.921048 -4.675569
-11.945760 7.981902 -4.668135
-11.888990 8.049924 -4.665165
-11.826398 8.113821 -4.660053
-11.751263 8.168766 -4.650110
-11.672390 8.220625 -4.638772
-11.590385 8.269726 -4.626261
-11.523436 8.329131 -4.619851
-11.470460 8.398470 -4.619185
-11.424756 8.473177 -4.621630
-11.378852 8.547852 -4.624191
-11.328388 8.619183 -4.625089
-11.268832 8.683555 -4.622440
-11.213459 8.751070 -4.621666
-11.157087 8.817761 -4.620645
-11.107136 8.889546 -4.622461
-11.071704 8.973191 -4.630542
-11.025411 9.048321 -4.634314
-10.972113 9.117820 -4.635340
-10.930268 9.197010 -4.641416
-10.875088 9.265146 -4.642038
-10.837616 9.348592 -4.650441
-10.780218 9.415061 -4.650513
-10.734274 9.491666 -4.655730
-10.709912 9.587861 -4.670593
-10.676349 9.676479 -4.681761
-10.668317 9.789101 -4.704490
-10.656726 9.899592 -4.726077
-10.638608 10.005069 -4.745178
-10.614576 10.105916 -4.762028
-10.587383 10.204606 -4.777830
-10.552298 10.296433 -4.790418
-10.513538 10.385302 -4.801660
-10.469037 10.469037 -4.810583
-10.409986 10.538526 -4.813073
-10.340578 10.597540 -4.810956
-10.256080 10.640788 -4.801930
-10.173832 10.685910 -4.794031
-10.081868 10.720270 -4.781602
-10.013409 10.779248 -4.780413
-9.990646 10.887965 -4.801350
-9.984357 11.016041 -4.830722
-9.959109 11.124606 -4.851441
-9.904685 11.201364 -4.858319
-9.835042 11.261095 -4.857960
-9.761864 11.316713 -4.856022
-9.774036 11.472405 -4.897003
-9.749184 11.586503 -4.920079
-9.715123 11.690890 -4.938999
-9.662588 11.773898 -4.948926
-9.323666 11.504144 -4.811402
-9.062034 11.322654 -4.712153
-9.064011 11.468667 -4.749684
-8.901213 11.405850 -4.700960
-8.824929 11.452296 -4.697697
-8.820883 11.593486 -4.733322
-8.859870 11.794209 -4.792986
-8.880525 11.974001 -4.843815
-8.835871 12.067852 -4.859757
-8.774962 12.140247 -4.867136
-8.703997 12.199035 -4.869201
-8.617305 12.235633 -4.862612
-8.527666 12.267562 -4.854415
-8.426147 12.281634 -4.839433
-8.273864 12.219728 -4.794945
-8.105983 12.131460 -4.740703
-7.955673 12.066128 -4.696008
-7.857757 12.078239 -4.681868
-7.774037 12.111487 -4.676178
-7.690152 12.144077 -4.670454
-7.648450 12.243794 -4.690666
-7.616198 12.360307 -4.717311
-7.566841 12.450621 -4.733970
-7.486723 12.490842 -4.731707
-7.362381 12.456083 -4.701338
-7.237772 12.418594 -4.670339
-7.118271 12.387650 -4.642188
-7.008604 12.371916 -4.620089
-6.898241 12.353230 -4.597218
-6.810300 12.373498 -4.589123
-6.746036 12.436781 -4.597155
-6.688164 12.512674 -4.609952
-6.625671 12.580837 -4.619999
-6.557445 12.638781 -4.626415
-6.478574 12.676436 -4.625560
-6.393776 12.702251 -4.620577
-6.306590 12.722833 -4.613901
-6.223581 12.751404 -4.610326
-6.149304 12.797845 -4.613388
-6.077046 12.848835 -4.618240
-6.007582 12.906267 -4.625546
-5.935402 12.958439 -4.631105
-5.854977 12.992835 -4.630471
-5.776233 13.030972 -4.631344
-5.688480 13.048535 -4.625093
-5.604101 13.073378 -4.621623
-5.520658 13.100113 -4.619012
-5.442161 13.138539 -4.620700
-5.362502 13.174287 -4.621613
-5.282241 13.208634 -4.622205
-5.195515 13.226590 -4.617246
-5.112574 13.253849 -4.615723
-5.027004 13.274014 -4.611917
-4.943186 13.298486 -4.609794
-4.861371 13.328226 -4.609677
-4.780019 13.359258 -4.610178
-4.697531 13.387119 -4.609759
-4.615578 13.416496 -4.610036
-4.532896 13.443754 -4.609758
-4.450894 13.473048 -4.610351
-4.369315 13.503734 -4.611591
-4.290379 13.542926 -4.615898
-4.216749 13.599791 -4.626374
-4.142713 13.656696 -4.636997
-4.070333 13.720600 -4.650127
-3.992314 13.766854 -4.657414
-3.904655 13.780108 -4.653704
-3.812960 13.778269 -4.645094
-3.721027 13.774308 -4.635975
-3.632272 13.781071 -4.630662
-3.549111 13.808805 -4.632577
-3.460741 13.816053 -4.627797
-3.371462 13.818828 -4.621710
-3.278287 13.804217 -4.610009
-3.179612 13.763850 -4.589926
-3.086759 13.745961 -4.577558
-2.995558 13.733471 -4.567192
-2.914333 13.766229 -4.572053
-2.840065 13.833805 -4.588622
-2.766720 13.909241 -4.607926
-2.693533 13.989372 -4.628910
-2.618897 14.066073 -4.648885
-2.536265 14.102586 -4.655721
-2.452980 14.136870 -4.661983
-2.367632 14.160274 -4.664822
-2.278092 14.158316 -4.659485
-2.194364 14.192649 -4.666265
-2.106336 14.199764 -4.664267
-2.015081 14.183653 -4.654825
-1.925688 14.178624 -4.649210
-1.828895 14.114865 -4.624536
-1.735666 14.072404 -4.607048
-1.644471 14.041672 -4.593597
-1.553392 14.007404 -4.579183
-1.468185 14.024029 -4.581586
-1.381759 14.029232 -4.580430
-1.297260 14.054874 -4.586117
-1.214429 14.102433 -4.599117
-1.129080 14.124690 -4.604030
-1.045516 14.173718 -4.617832
-0.960690 14.211841 -4.628245
-0.873919 14.224793 -4.630630
-0.788302 14.260284 -4.640521
-0.699941 14.247617 -4.634914
-0.611550 14.229401 -4.627681
-0.523642 14.216976 -4.622508
-0.435058 14.176246 -4.608310
-0.347543 14.157339 -4.601384
-0.260473 14.148547 -4.597921
-0.173765 14.158949 -4.600868
-0.087120 14.198192 -4.613359
0.000000 14.228077 -4.622982
0.087519 14.263121 -4.634456
0.175512 14.301269 -4.647114
0.263649 14.321063 -4.653984
0.352112 14.343472 -4.661881
0.440427 14.351182 -4.665177
0.528432 14.347011 -4.664788
0.616950 14.355062 -4.668548
0.704972 14.350037 -4.668233
0.792628 14.338545 -4.665988
0.880515 14.332152 -4.665579
0.967348 14.310343 -4.660323
1.054791 14.299450 -4.658796
1.142336 14.290528 -4.658085
1.228847 14.269867 -4.653721
1.315824 14.256006 -4.651746
1.401782 14.232533 -4.646806
1.488230 14.215502 -4.644140
1.574450 14.197294 -4.641260
1.660356 14.177309 -4.637970
1.746745 14.162235 -4.636457
1.832305 14.141180 -4.633158
1.917550 14.118705 -4.629562
2.002435 14.094642 -4.625614
2.087971 14.075956 -4.623599
2.172911 14.053893 -4.620644
2.256702 14.025372 -4.615733
2.339294 13.990787 -4.608988
2.420491 13.949633 -4.600237
2.501994 13.912028 -4.592812
2.584337 13.880450 -4.587536
2.669186 13.862925 -4.587070
2.756904 13.859892 -4.591578
2.846232 13.863840 -4.598585
2.936864 13.872656 -4.607400
3.026118 13.873575 -4.613785
3.112540 13.860770 -4.615791
3.197355 13.840653 -4.615538
3.281740 13.818759 -4.614865
3.366433 13.798216 -4.614816
3.453257 13.786177 -4.617790
3.539180 13.770162 -4.619613
3.628716 13.767577 -4.626128
3.711414 13.738725 -4.623998
3.796408 13.718456 -4.624930
3.878513 13.687849 -4.622547
3.959751 13.654567 -4.619426
4.044704 13.634210 -4.620848
4.130196 13.615430 -4.622986
4.218467 13.605334 -4.628259
4.305349 13.590180 -4.632004
4.392731 13.576101 -4.636305
4.477006 13.552091 -4.637399
4.559728 13.523334 -4.637046
4.643100 13.496497 -4.637525
4.726086 13.468496 -4.637781
4.809793 13.442472 -4.638895
4.896032 13.423254 -4.642543
4.981643 13.401946 -4.645658
5.061480 13.365049 -4.643546
5.139833 13.324517 -4.640334
5.217407 13.282323 -4.636701
5.295923 13.242846 -4.634177
5.375111 13.205266 -4.632481
5.456179 13.172382 -4.632602
5.539002 13.143641 -4.634360
5.620412 13.111430 -4.635075
5.704808 13.085989 -4.638369
5.782100 13.044209 -4.636048
5.856305 12.995782 -4.631521
5.932386 12.951856 -4.628752
6.009541 12.910475 -4.627054
6.087172 12.870244 -4.625935
6.167326 12.835354 -4.626909
6.242718 12.790615 -4.624503
6.318935 12.747738 -4.622932
6.389454 12.693665 -4.617454
6.458908 12.637956 -4.611518
6.528426 12.582850 -4.605941
6.597639 12.527609 -4.600452
6.668742 12.476339 -4.596565
6.744080 12.433175 -4.595822
6.817159 12.385961 -4.593745
6.892791 12.343471 -4.593586
6.964166 12.293472 -4.590795
7.038536 12.248890 -4.590189
7.114983 12.207912 -4.591106
7.187546 12.160287 -4.589695
7.267590 12.125241 -4.593212
7.341518 12.079870 -4.593003
7.421917 12.045010 -4.596978
7.495098 11.998305 -4.596618
7.569614 11.953727 -4.597248
7.642448 11.906478 -4.597025
7.714648 11.858265 -4.596600
7.789160 11.813582 -4.597720
7.858473 11.761035 -4.595949
7.931207 11.713656 -4.596365
8.003904 11.666187 -4.596924
8.075667 11.617334 -4.597113
8.144895 11.564863 -4.596039
8.216001 11.515087 -4.596206
8.285717 11.463373 -4.595771
8.357769 11.414870 -4.596799
8.434077 11.372037 -4.600304
8.506008 11.323150 -4.601555
8.582726 11.280471 -4.605526
8.651441 11.227156 -4.605345
8.726166 11.181548 -4.608514
8.794253 11.127343 -4.608327
8.866872 11.078806 -4.610671
8.940592 11.031482 -4.613720
9.009386 10.977968 -4.614372
9.084035 10.931457 -4.618165
9.156866 10.882558 -4.621156
9.223115 10.825754 -4.620980
9.285653 10.764653 -4.619132
9.346226 10.701403 -4.616513
9.413672 10.646069 -4.617474
9.476041 10.585005 -4.616121
9.547670 10.534230 -4.619439
9.622349 10.486589 -4.624352
9.688278 10.429250 -4.625195
9.754462 10.372132 -4.626321
9.818867 10.313079 -4.626767
9.878725 10.249279 -4.625251
9.932335 10.179153 -4.621021
9.989468 10.112815 -4.618645
10.049677 10.049677 -4.617885
10.115848 9.992463 -4.620030
10.182567 9.935667 -4.622571
10.243897 9.873538 -4.622823
10.294211 9.800904 -4.618302
10.332737 9.717413 -4.608749
10.373031 9.636053 -4.600263
10.409918 9.551997 -4.590542
10.453232 9.474257 -4.583920
10.499912 9.399862 -4.579012
10.551145 9.329737 -4.576303
10.590106 9.249023 -4.568500
10.624791 9.165007 -4.559117
10.640536 9.065317 -4.541919
10.656626 8.966761 -4.525217
10.683377 8.877881 -4.513359
10.724627 8.801474 -4.507885
10.791080 8.745755 -4.513176
10.863142 8.694266 -4.520918
10.935491 8.642627 -4.528872
11.001368 8.585552 -4.534252
11.052118 8.516560 -4.533545
11.101428 8.446501 -4.532427
11.163693 8.386223 -4.536754
11.243064 8.338425 -4.548131
11.328965 8.294870 -4.562205
11.410425 8.247447 -4.574544
11.486544 8.195635 -4.584813
11.564704 8.144783 -4.595976
11.631676 8.085637 -4.602788
11.706055 8.031256 -4.612633
11.773243 7.971553 -4.619747
11.837545 7.909595 -4.625847
11.901244 7.846959 -4.631837
11.961015 7.781494 -4.636429
12.019982 7.715303 -4.640848
12.074860 7.646321 -4.643834
12.119499 7.570806 -4.643049
12.160038 7.492796 -4.640878
12.203058 7.416385 -4.639842
12.257058 7.346598 -4.643146
12.317027 7.280190 -4.648854
12.387316 7.219543 -4.658576
12.459434 7.159520 -4.669088
12.516940 7.090759 -4.674246
12.567910 7.018121 -4.677110
12.606423 6.938500 -4.675511
12.649308 6.861316 -4.675714
12.697100 6.786741 -4.677898
12.752306 6.715975 -4.682967
12.802585 6.642432 -4.686375
12.841701 6.563036 -4.685864
12.866221 6.476311 -4.680223
12.872249 6.380654 -4.668086
12.881956 6.287299 -4.657528
12.897465 6.197170 -4.649299
12.923677 6.112444 -4.645140
12.973752 6.038995 -4.649732
13.033856 5.969945 -4.658057
13.090396 5.898941 -4.665240
13.139451 5.824318 -4.669898
13.172605 5.742568 -4.669070
13.194139 5.655867 -4.664314
13.214909 5.569036 -4.659489
13.241017 5.484609 -4.656740
13.267089 5.400276 -4.654169
13.290773 5.315089 -4.650948
13.315326 5.230371 -4.648222
13.328668 5.141434 -4.641779
13.329853 5.048151 -4.631318
13.334265 4.956485 -4.622197
13.332238 4.862834 -4.611064
13.338909 4.772738 -4.603156
13.362257 4.688807 -4.601198
13.390435 4.606612 -4.601081
13.416123 4.523579 -4.600284
13.433224 4.437738 -4.596724
13.443031 4.349674 -4.590860
13.451275 4.261344 -4.584660
13.484064 4.180866 -4.587006
13.529255 4.104055 -4.593726
13.589497 4.031440 -4.605694
13.648652 3.958036 -4.617425
13.701191 3.882293 -4.627053
13.736119 3.801296 -4.630884
13.753626 3.715440 -4.629013
13.766389 3.628402 -4.625729
13.776886 3.540908 -4.621868
13.795719 3.455648 -4.620986
13.833325 3.374999 -4.626559
13.864484 3.292599 -4.630136
13.890849 3.208950 -4.632278
13.907510 3.123036 -4.631356
13.896896 3.031204 -4.621541
13.875155 2.937393 -4.608230
13.847239 2.842824 -4.593078
13.826794 2.750320 -4.580613
13.836825 2.664161 -4.578434
13.873534 2.583049 -4.585250
13.942645 2.507500 -4.602920
14.026541 2.433836 -4.625599
14.000040 2.340841 -4.612036
13.791510 2.219073 -4.538769
13.508594 2.088600 -4.441361
13.260943 1.967075 -4.355888
12.680129 1.801475 -4.161395
13.229685 1.796807 -4.338050
14.029659 1.817855 -4.596620
13.933077 1.718481 -4.561435
13.849740 1.621993 -4.530809
13.863142 1.537393 -4.532022
13.923026 1.457611 -4.548589
14.032739 1.382104 -4.581575
14.198013 1.310471 -4.632823
14.311771 1.232456 -4.667387
14.382724 1.149706 -4.688137
14.496570 1.069331 -4.723018
14.622701 0.988463 -4.762046
14.681876 0.902001 -4.779425
14.653587 0.810043 -4.768508
14.637088 0.719074 -4.761614
14.701607 0.631844 -4.781251
14.745746 0.543118 -4.794432
14.753957 0.452788 -4.796108
14.725045 0.361480 -4.785899
14.691634 0.270471 -4.774410
14.686774 0.180243 -4.772382
14.681560 0.090086 -4.770418
14.646831 -0.000000 -4.759044
14.641606 -0.089841 -4.757436
14.977165 -0.183807 -4.866742
15.073973 -0.277510 -4.898661
14.966282 -0.367402 -4.864305
14.951222 -0.458842 -4.860234
15.013881 -0.552994 -4.881614
15.054135 -0.646995 -4.895900
15.063419 -0.740018 -4.900304
15.081023 -0.833672 -4.907603
15.092250 -0.927213 -4.913015
15.074632 -1.019012 -4.909223
15.038415 -1.109300 -4.899553
14.995385 -1.198680 -4.887838
14.966082 -1.288802 -4.880772
14.966548 -1.381407 -4.883596
14.809211 -1.458580 -4.835087
14.647223 -1.533428 -4.785181
14.701081 -1.630319 -4.805953
14.776220 -1.730496 -4.833898
14.775271 -1.822356 -4.837154
14.623489 -1.894799 -4.791180
14.396422 -1.955269 -4.720626
14.294832 -2.030876 -4.691312
14.291019 -2.119872 -4.694242
14.266254 -2.205744 -4.690464
14.276747 -2.297148 -4.698460
14.312750 -2.393127 -4.715052
14.336055 -2.487542 -4.727669
14.274032 -2.567098 -4.712321
14.152164 -2.634926 -4.677338
14.072507 -2.709540 -4.656419
14.045154 -2.793755 -4.652952
14.021187 -2.878535 -4.650776
14.039643 -2.972215 -4.662860
14.059893 -3.066757 -4.675747
14.078044 -3.161330 -4.688146
14.090125 -3.254985 -4.698732
14.106234 -3.350011 -4.710870
14.108063 -3.442028 -4.718445
14.099617 -3.531770 -4.722779
14.082855 -3.619547 -4.724515
14.068730 -3.708090 -4.727320
14.051371 -3.795873 -4.729225
14.041861 -3.885906 -4.733960
14.035892 -3.977132 -4.740086
14.021143 -4.066056 -4.743441
14.014732 -4.157590 -4.749813
13.998567 -4.246419 -4.753076
13.980381 -4.334754 -4.755843
13.959723 -4.422420 -4.757957
13.923031 -4.504985 -4.754783
13.883332 -4.586433 -4.750747
13.852630 -4.670759 -4.749959
13.821345 -4.754855 -4.749146
13.787392 -4.837987 -4.747590
13.757280 -4.922433 -4.747533
13.693555 -4.994621 -4.736028
13.622331 -5.063563 -4.722052
13.551173 -5.131967 -4.708213
13.484027 -5.201363 -4.695884
13.432907 -5.276558 -4.689268
13.388249 -5.354071 -4.685059
13.358784 -5.437600 -4.686336
13.342209 -5.526524 -4.692329
13.312982 -5.610365 -4.694069
13.267959 -5.687511 -4.690410
13.219528 -5.763024 -4.685702
13.151511 -5.829664 -4.674184
13.073850 -5.891484 -4.659343
12.999591 -5.954251 -4.645812
12.901536 -6.005380 -4.623851
12.792341 -6.050327 -4.597934
12.675484 -6.090509 -4.569279
12.565588 -6.132889 -4.543144
12.477055 -6.184760 -4.524770
12.421404 -6.252409 -4.518416
12.374518 -6.324272 -4.515392
12.340579 -6.402727 -4.517258
12.315771 -6.486074 -4.522660
12.312297 -6.581060 -4.536128
12.298901 -6.671246 -4.546188
12.303635 -6.771847 -4.563212
12.291903 -6.863995 -4.574395
12.269201 -6.950416 -4.581732
12.222108 -7.023146 -4.580152
12.155143 -7.084229 -4.571261
12.086796 -7.144108 -4.561957
12.030397 -7.210742 -4.557284
11.987768 -7.285543 -4.557984
11.964520 -7.372321 -4.566259
11.934524 -7.455256 -4.572183
11.887790 -7.527860 -4.571889
11.853068 -7.608165 -4.576404
11.824396 -7.692614 -4.583472
11.805025 -7.783518 -4.594390
11.801230 -7.885329 -4.611656
11.794126 -7.985693 -4.627941
11.785114 -8.085497 -4.643785
11.758443 -8.173757 -4.652951
11.731526 -8.262273 -4.662273
11.696864 -8.345699 -4.668762
11.643417 -8.415853 -4.667952
11.592450 -8.487790 -4.668311
11.531079 -8.552031 -4.664641
11.457639 -8.607037 -4.656209
11.413775 -8.684150 -4.659950
11.375198 -8.765519 -4.666072
11.347305 -8.855524 -4.676831
11.315967 -8.943328 -4.686444
11.264829 -9.015754 -4.688088
11.197830 -9.075411 -4.683292
11.149200 -9.149912 -4.686346
11.104352 -9.227710 -4.691207
11.015898 -9.269061 -4.677777
10.912719 -9.297206 -4.658100
10.864285 -9.371597 -4.661884
10.855599 -9.480896 -4.683032
10.874713 -9.615848 -4.716642
10.896863 -9.755225 -4.752122
10.887169 -9.867555 -4.774209
10.841673 -9.948170 -4.780937
10.783128 -10.017013 -4.782134
10.726594 -10.087815 -4.784423
10.673197 -10.161728 -4.788327
10.627882 -10.243641 -4.796106
10.569133 -10.312860 -4.798060
10.517049 -10.388770 -4.803263
10.462531 -10.462531 -4.807594
10.412830 -10.541405 -4.814387
10.370445 -10.628150 -4.824852
10.338358 -10.726152 -4.840453
10.320901 -10.840381 -4.863331
10.318411 -10.971791 -4.893789
10.312367 -11.101071 -4.923136
10.303701 -11.229137 -4.951799
10.287008 -11.349965 -4.977153
