4.951216 14.684418 -2.889626
4.846428 14.087528 -2.777968
3.804341 10.841688 -2.142473
0.768565 2.147996 -0.425399
0.926811 2.541000 -0.504348
5.586841 15.030091 -2.989980
6.241087 16.479849 -3.285941
6.171430 15.998830 -3.197520
6.108924 15.551922 -3.115634
6.103146 15.261368 -3.064870
5.998632 14.737095 -2.966919
5.454387 13.168055 -2.657722
0.982782 2.332069 -0.471892
0.471265 1.099378 -0.223039
5.311559 12.183935 -2.478412
7.070518 15.950832 -3.253425
6.996095 15.525102 -3.175287
6.870867 15.000789 -3.076616
6.826740 14.666087 -3.016504
6.762184 14.297438 -2.949159
6.031685 12.553058 -2.596928
5.397599 11.059062 -2.294665
6.965453 14.052014 -2.924491
7.445495 14.791658 -3.087875
7.484822 14.645333 -3.066858
7.452582 14.364063 -3.017477
7.419539 14.088235 -2.969041
7.375218 13.798063 -2.917371
7.431426 13.700346 -2.906297
7.636243 13.874137 -2.953048
7.835972 14.032501 -2.996932
7.931090 14.000331 -3.000399
7.979228 13.885940 -2.986320
7.982551 13.696488 -2.956054
8.027576 13.581496 -2.941812
8.374170 13.971459 -3.037352
8.707991 14.328289 -3.126483
8.825933 14.323583 -3.137214
8.860506 14.184076 -3.118508
8.907646 14.066711 -3.104663
8.990712 14.006993 -3.103600
9.087018 13.967750 -3.107201
9.186766 13.933289 -3.112016
9.258843 13.856838 -3.107571
9.309711 13.749578 -3.096269
9.377254 13.667931 -3.090782
9.443771 13.585434 -3.085173
9.535067 13.538755 -3.087800
9.652083 13.527819 -3.098755
9.687209 13.402350 -3.083573
9.656291 13.188366 -3.047915
9.687852 13.062557 -3.032520
9.802978 13.049669 -3.043436
9.922141 13.040896 -3.055531
10.035598 13.023406 -3.065803
10.136972 12.989329 -3.072366
10.170734 12.869000 -3.058608
10.171162 12.708465 -3.035229
10.261080 12.660785 -3.038822
10.387767 12.657531 -3.053282
10.449916 12.575118 -3.048812
10.400262 12.360283 -3.012141
10.439356 12.253333 -3.001632
10.532858 12.210509 -3.006917
10.575908 12.109385 -2.997938
10.612180 12.001481 -2.987289
10.637183 11.882034 -2.973748
10.684343 11.788356 -2.966655
10.415554 11.351036 -2.872628
10.936477 11.772913 -2.996320
11.047619 11.747174 -3.006965
11.013490 11.567830 -2.978300
10.954457 11.365362 -2.943422
10.878131 11.148451 -2.904478
10.740253 10.872871 -2.849798
9.638780 9.638780 -2.541794
5.096939 5.034771 -1.335916
8.620573 8.411547 -2.245897
11.200658 10.795709 -2.900767
11.422934 10.875538 -2.940995
11.242864 10.573341 -2.877875
10.869601 10.097342 -2.766418
9.751528 8.947867 -2.467838
2.423610 2.196632 -0.609925
1.960580 1.755175 -0.490679
7.943449 7.023909 -1.977204
11.775720 10.284497 -2.915332
12.059922 10.402960 -2.969834
11.857653 10.102253 -2.904704
11.367946 9.565284 -2.770314
10.258544 8.524844 -2.487164
3.464557 2.843289 -0.835729
2.345473 1.900916 -0.562957
6.600027 5.282302 -1.576319
11.050778 8.733741 -2.626467
11.864210 9.258920 -2.806241
11.448541 8.822036 -2.695069
10.367223 7.887883 -2.429079
2.913028 2.188281 -0.679374
2.355816 1.702782 -0.542019
10.563881 7.537317 -2.419820
12.116732 8.533565 -2.763478
11.319881 7.868896 -2.570679
8.227398 5.644629 -1.860493
1.670053 1.130777 -0.376079
2.086265 1.357264 -0.464101
7.378109 4.735809 -1.634805
10.708870 6.781317 -2.363554
11.060371 6.909190 -2.431731
10.059185 6.198288 -2.203207
6.880276 4.181475 -1.501301
3.749825 2.247558 -0.815200
4.894279 2.892847 -1.060122
10.225646 5.959684 -2.206957
12.921085 7.424797 -2.778818
13.543755 7.672442 -2.902550
13.667694 7.632258 -2.919020
13.740336 7.562599 -2.924569
13.933528 7.557910 -2.955762
13.999998 7.483155 -2.960067
13.958993 7.351473 -2.941804
13.969509 7.247873 -2.934592
13.996535 7.153240 -2.930994
14.014992 7.054554 -2.925739
14.039003 6.959003 -2.921783
14.126185 6.894570 -2.931067
14.332904 6.886892 -2.965136
14.345427 6.784881 -2.959058
14.204557 6.611908 -2.921577
14.269080 6.535719 -2.926545
14.380882 6.480474 -2.941264
14.455652 6.407750 -2.948459
14.507810 6.324647 -2.951127
14.569973 6.245639 -2.955921
14.645203 6.171791 -2.963444
14.714981 6.095145 -2.969940
14.776827 6.014804 -2.974917
14.849902 5.938598 -2.982237
14.901056 5.853259 -2.985241
14.959410 5.770481 -2.989782
14.990143 5.676920 -2.988906
14.995344 5.573926 -2.983067
15.008695 5.474309 -2.978985
15.019017 5.373890 -2.974433
15.066274 5.286745 -2.977311
15.147371 5.211038 -2.986962
15.226792 5.134091 -2.996355
15.319454 5.060864 -3.008422
15.396133 4.981627 -3.017421
15.459855 4.897659 -3.023962
15.514830 4.810525 -3.028885
15.560534 4.720236 -3.032096
15.592820 4.625743 -3.032799
15.617737 4.529060 -3.032183
15.636876 4.430778 -3.030564
15.651663 4.331398 -3.028222
15.672654 4.233851 -3.027200
15.692844 4.136157 -3.026140
15.727559 4.042266 -3.027995
15.767068 3.949445 -3.030879
15.801457 3.855176 -3.032885
15.834956 3.760556 -3.034828
15.850919 3.661750 -3.033525
15.854425 3.560230 -3.029958
15.848494 3.456889 -3.024714
15.831048 3.351459 -3.017402
15.809644 3.245703 -3.009470
15.793896 3.141601 -3.002746
15.792147 3.040642 -2.998810
15.815519 2.944619 -2.999761
15.847609 2.850097 -3.002474
15.900887 2.759066 -3.009304
15.945510 2.666128 -3.014596
15.980359 2.571262 -3.018145
16.004166 2.474448 -3.019717
16.009800 2.374830 -3.017974
16.008878 2.274392 -3.015112
16.010816 2.174529 -3.012907
16.016252 2.075263 -3.011477
16.046792 1.979183 -3.014880
16.086489 1.883947 -3.020109
16.122041 1.787901 -3.024667
16.153199 1.691089 -3.028509
16.177251 1.593320 -3.031129
16.183917 1.493769 -3.030603
16.182255 1.393532 -3.028634
16.184456 1.293731 -3.027503
16.197040 1.194765 -3.028428
16.216233 1.096182 -3.030702
16.242540 0.997882 -3.034418
16.212747 0.896233 -3.027767
16.158774 0.793830 -3.016721
16.146879 0.693959 -3.013649
16.104583 0.593167 -3.005019
16.031362 0.491990 -2.990737
16.038906 0.393733 -2.991637
16.079918 0.296029 -2.998891
16.143646 0.198122 -3.010493
16.202400 0.099418 -3.021279
16.222173 -0.000000 -3.024909
16.227133 -0.099570 -3.025891
16.238928 -0.199292 -3.028262
16.258368 -0.299314 -3.032172
16.294332 -0.400003 -3.039280
16.330289 -0.501164 -3.046503
16.353839 -0.602348 -3.051529
16.367915 -0.703459 -3.054903
16.358395 -0.803636 -3.053989
16.339042 -0.903214 -3.051353
16.324061 -1.002891 -3.049647
16.298966 -1.101775 -3.046164
16.284043 -1.201183 -3.044696
16.258447 -1.299645 -3.041344
16.200600 -1.395112 -3.032067
16.133681 -1.489133 -3.021196
16.060820 -1.581853 -3.009313
16.024857 -1.677653 -3.004447
16.028788 -1.777559 -3.007172
16.042810 -1.878831 -3.011909
16.074051 -1.982545 -3.020001
16.092883 -2.085192 -3.025886
16.086376 -2.184792 -3.027126
16.070068 -2.283085 -3.026637
16.020146 -2.376364 -3.019924
15.979499 -2.470634 -3.015063
15.952746 -2.566819 -3.012930
15.933140 -2.664060 -3.012258
15.925130 -2.763272 -3.013892
15.920600 -2.863223 -3.016303
15.896018 -2.959606 -3.015029
15.861911 -3.054074 -3.012058
15.814460 -3.145692 -3.006656
15.754973 -3.234479 -2.999063
15.653785 -3.313932 -2.983616
15.510062 -3.383070 -2.960123
15.341717 -3.445098 -2.931973
15.234453 -3.519339 -2.915546
15.182035 -3.605497 -2.909694
15.162249 -3.699224 -2.910197
15.132155 -3.790407 -2.908830
15.113716 -3.884497 -2.909813
15.120114 -3.985203 -2.915698
15.132661 -4.087976 -2.922899
15.168849 -4.197786 -2.934809
15.194245 -4.305357 -2.944778
15.206156 -4.409703 -2.952275
15.208528 -4.511739 -2.958055
15.193436 -4.608878 -2.960564
15.182711 -4.707549 -2.964047
15.158592 -4.802220 -2.965035
15.130056 -4.895534 -2.965273
15.096218 -4.987117 -2.964583
15.070541 -5.081407 -2.965608
15.040603 -5.174307 -2.965909
15.015408 -5.268896 -2.967259
14.989748 -5.363418 -2.968636
14.960449 -5.456712 -2.969409
14.933094 -5.550787 -2.970684
14.890369 -5.639134 -2.969012
14.844254 -5.726061 -2.966767
14.784921 -5.807640 -2.961975
14.707003 -5.881451 -2.953539
14.642608 -5.960171 -2.947896
14.577113 -6.038038 -2.942114
14.528080 -6.122433 -2.939744
14.489854 -6.211295 -2.939666
14.451516 -6.300106 -2.939676
14.408771 -6.386969 -2.938897
14.363826 -6.472788 -2.937776
14.313402 -6.556020 -2.935635
14.258079 -6.636821 -2.932585
14.204221 -6.718096 -2.929931
14.143510 -6.795889 -2.925955
14.083249 -6.873614 -2.922159
14.016490 -6.947844 -2.917098
13.928580 -7.011058 -2.907700
13.855682 -7.081254 -2.901498
13.799314 -7.159570 -2.898839
13.759363 -7.246339 -2.899733
13.737206 -7.342690 -2.904504
13.709172 -7.436213 -2.908169
13.697738 -7.539154 -2.915502
13.665841 -7.631223 -2.918624
13.612290 -7.711267 -2.917238
13.555400 -7.789291 -2.915234
13.462596 -7.846235 -2.905575
13.376620 -7.906481 -2.897435
13.302364 -7.973130 -2.891893
13.236934 -8.044721 -2.888346
13.198817 -8.132873 -2.890863
13.180683 -8.233706 -2.897902
13.145516 -8.324306 -2.901346
13.119378 -8.420975 -2.906927
13.059766 -8.496310 -2.905215
12.982905 -8.560140 -2.899747
12.913063 -8.628233 -2.895918
12.834027 -8.689800 -2.890096
12.784357 -8.771054 -2.890976
12.750241 -8.863196 -2.895505
12.714610 -8.954639 -2.899837
12.699630 -9.061171 -2.909046
12.674256 -9.160943 -2.916055
12.646665 -9.259667 -2.922724
12.635733 -9.371299 -2.933432
12.595440 -9.461759 -2.937501
12.568533 -9.562745 -2.944854
12.533917 -9.658406 -2.950574
12.491724 -9.748637 -2.954667
12.448809 -9.838645 -2.958740
12.394816 -9.920134 -2.960319
12.331067 -9.993856 -2.959684
12.277810 -10.076138 -2.961685
12.213774 -10.149640 -2.961205
12.158158 -10.230189 -2.962885
12.108309 -10.315802 -2.966106
12.054398 -10.398195 -2.968473
12.002236 -10.482328 -2.971411
11.943893 -10.561259 -2.972955
11.869588 -10.626041 -2.970633
11.790123 -10.685944 -2.967099
11.701572 -10.737201 -2.961339
11.609616 -10.784781 -2.954759
11.532794 -10.846006 -2.952090
11.463822 -10.914466 -2.951522
11.410398 -10.997866 -2.955086
11.365634 -11.090048 -2.961061
11.329660 -11.191471 -2.969523
11.300254 -11.300254 -2.979933
11.269820 -11.408977 -2.990312
11.231065 -11.510156 -2.998712
11.183421 -11.602914 -3.004944
11.111483 -11.670756 -3.004800
11.025640 -11.723803 -3.000983
10.917891 -11.752906 -2.991228
10.809825 -11.780718 -2.981369
10.729696 -11.838396 -2.979248
10.671018 -11.919829 -2.983207
10.596135 -11.983336 -2.982773
10.493088 -12.014556 -2.974462
10.406109 -12.063573 -2.970733
10.334221 -12.129929 -2.971402
10.283539 -12.221562 -2.978336
10.224165 -12.303456 -2.982949
10.159367 -12.379224 -2.986148
10.087803 -12.446986 -2.987506
10.005899 -12.501975 -2.985912
9.922741 -12.555216 -2.984030
9.833534 -12.600509 -2.980398
9.738659 -12.638062 -2.975091
9.636218 -12.665100 -2.967480
9.533207 -12.690551 -2.959682
9.454043 -12.747301 -2.959333
9.385263 -12.818201 -2.962367
9.324320 -12.900290 -2.968060
9.265388 -12.985850 -2.974609
9.183543 -13.039630 -2.973964
9.104566 -13.097467 -2.974358
9.016146 -13.141594 -2.971760
8.920155 -13.174240 -2.966709
8.838553 -13.227830 -2.966508
8.746141 -13.265006 -2.962754
8.652711 -13.300172 -2.958695
8.565324 -13.344264 -2.956756
8.482984 -13.396095 -2.956651
8.409988 -13.462879 -2.959946
8.330821 -13.520067 -2.961225
8.245237 -13.566866 -2.960338
8.156583 -13.608436 -2.958432
8.057516 -13.632151 -2.952784
7.956271 -13.651397 -2.946323
7.857341 -13.673825 -2.940702
7.754247 -13.688161 -2.933498
7.660068 -13.717495 -2.929656
7.561729 -13.738755 -2.924232
7.465936 -13.763967 -2.919793
7.378899 -13.804949 -2.918827
7.291051 -13.844263 -2.917625
7.202596 -13.882242 -2.916260
7.123619 -13.938576 -2.918857
7.042351 -13.990749 -2.920679
6.965449 -14.052007 -2.924489
6.890514 -14.117874 -2.929343
6.817292 -14.188054 -2.935170
6.743193 -14.257285 -2.940877
6.672109 -14.333889 -2.948178
6.590545 -14.388779 -2.951095
6.509409 -14.445093 -2.954397
6.428316 -14.502049 -2.957923
6.354325 -14.575886 -2.964975
6.279169 -14.648193 -2.971790
6.204129 -14.721939 -2.978972
6.130531 -14.800412 -2.987183
6.031502 -14.817849 -2.983176
5.931889 -14.833126 -2.978868
5.829603 -14.840834 -2.973176
5.727933 -14.849109 -2.967737
5.642623 -14.899580 -2.970848
5.557538 -14.951258 -2.974297
5.479503 -15.022934 -2.981811
5.396919 -15.083377 -2.987179
5.309932 -15.132351 -2.990369
5.215951 -15.161652 -2.989779
5.113604 -15.166029 -2.984398
5.012775 -15.173886 -2.979835
4.919497 -15.204117 -2.979788
4.842817 -15.286742 -2.990101
4.767929 -15.377449 -3.002065
4.690436 -15.462296 -3.012954
4.604658 -15.521745 -3.018975
4.511434 -15.556958 -3.020383
4.404397 -15.543773 -3.012520
4.287730 -15.493864 -2.997691
4.174221 -15.451920 -2.984565
4.061701 -15.410350 -2.971666
3.953997 -15.384127 -2.961874
3.859855 -15.409405 -2.962125
3.769447 -15.450076 -2.965442
3.682928 -15.508081 -2.972182
3.600075 -15.583945 -2.982431
3.510476 -15.632859 -2.987614
3.418232 -15.671267 -2.990889
3.322088 -15.692311 -2.990959
3.218977 -15.679463 -2.984689
3.117546 -15.672960 -2.979754
3.017724 -15.673120 -2.976208
2.916738 -15.665771 -2.971358
2.821960 -15.691162 -2.972834
2.722429 -15.689744 -2.969344
2.624393 -15.695899 -2.967406
2.526805 -15.704065 -2.965962
2.426891 -15.696579 -2.961680
2.331779 -15.719577 -2.963264
2.236315 -15.740864 -2.964634
2.142300 -15.773512 -2.968252
2.048915 -15.812908 -2.973243
1.952993 -15.834447 -2.974984
1.855760 -15.845807 -2.974923
1.756130 -15.835559 -2.970920
1.653737 -15.796415 -2.961617
1.553339 -15.771312 -2.955068
1.454522 -15.758696 -2.950976
1.357667 -15.765775 -2.950686
1.263594 -15.807445 -2.956978
1.168551 -15.841665 -2.961982
1.074094 -15.889467 -2.969632
0.978143 -15.921245 -2.974393
0.881209 -15.940971 -2.977012
0.784296 -15.964712 -2.980491
0.686596 -15.975571 -2.981676
0.588196 -15.969635 -2.979838
0.490508 -15.983063 -2.981726
0.392420 -15.985405 -2.981658
0.294699 -16.007665 -2.985416
0.196722 -16.029580 -2.989222
0.098434 -16.041994 -2.991368
0.000000 -16.045845 -2.992030
-0.098413 -16.038640 -2.990743
-0.196661 -16.024561 -2.988286
-0.294703 -16.007884 -2.985457
-0.392528 -15.989815 -2.982480
-0.489797 -15.959897 -2.977404
-0.587147 -15.941148 -2.974523
-0.684234 -15.920603 -2.971417
-0.781511 -15.908031 -2.969909
-0.878653 -15.894732 -2.968377
-0.975034 -15.870639 -2.964939
-1.070712 -15.839447 -2.960284
-1.164561 -15.787569 -2.951868
-1.259836 -15.760440 -2.948185
-1.357403 -15.762706 -2.950112
-1.449652 -15.705934 -2.941096
-1.536877 -15.604173 -2.923751
-1.624399 -15.516174 -2.909075
-1.716410 -15.477385 -2.903723
-1.810985 -15.463491 -2.903146
-1.905678 -15.450826 -2.902909
-1.996216 -15.406194 -2.896770
-2.083092 -15.337574 -2.886217
-2.167134 -15.253916 -2.872923
-2.250783 -15.173547 -2.860333
-2.331283 -15.078208 -2.845004
-2.413948 -15.002658 -2.833491
-2.501762 -14.962475 -2.828747
-2.587000 -14.909251 -2.821633
-2.679328 -14.898070 -2.822575
-2.774625 -14.902485 -2.826584
-2.866118 -14.885726 -2.826688
-2.963486 -14.898450 -2.832504
-3.056331 -14.887220 -2.833881
-3.141432 -14.838962 -2.828310
-3.229282 -14.805006 -2.825562
-3.308113 -14.731697 -2.815392
-3.388485 -14.668017 -2.807143
-3.471047 -14.615890 -2.801190
-3.550766 -14.553754 -2.793404
-3.634046 -14.507924 -2.788835
-3.715185 -14.454960 -2.782984
-3.797041 -14.406215 -2.778032
-3.884469 -14.379329 -2.777392
-3.964876 -14.327220 -2.771974
-4.046730 -14.281515 -2.767883
-4.132480 -14.250196 -2.766675
-4.212017 -14.198202 -2.761547
-4.295639 -14.160824 -2.759351
-4.373368 -14.104916 -2.753634
-4.444511 -14.029457 -2.744175
-4.524452 -13.983196 -2.740505
-4.598813 -13.920806 -2.733757
-4.675908 -13.867903 -2.728951
-4.759763 -13.835612 -2.728292
-4.836183 -13.782252 -2.723570
-4.914918 -13.736275 -2.720393
-4.992326 -13.687262 -2.716702
-5.071160 -13.642770 -2.713996
-5.156997 -13.617265 -2.715166
-5.243171 -13.592411 -2.716574
-5.330963 -13.571412 -2.718863
-5.419326 -13.551425 -2.721470
-5.502111 -13.517271 -2.721340
-5.596304 -13.510673 -2.726873
-5.698178 -13.521355 -2.736035
-5.807752 -13.548459 -2.748678
-5.924308 -13.589489 -2.764325
-6.034619 -13.613882 -2.776767
-6.142567 -13.631030 -2.787900
-6.242602 -13.629133 -2.795294
-6.326964 -13.592405 -2.795670
-6.416214 -13.565946 -2.798273
-6.507116 -13.542520 -2.801624
-6.598534 -13.519640 -2.805214
-6.709359 -13.535373 -2.816968
-6.811945 -13.533011 -2.825122
-6.917856 -13.535967 -2.834547
-7.023799 -13.537630 -2.843867
-7.109371 -13.499289 -2.844923
-7.202672 -13.475251 -2.849118
-7.292788 -13.444757 -2.852078
-7.379270 -13.407249 -2.853673
-7.481809 -13.398272 -2.861479
-7.573796 -13.369619 -2.865231
-7.667029 -13.342633 -2.869476
-7.755766 -13.307370 -2.872073
-7.826753 -13.241732 -2.868218
-7.901598 -13.183020 -2.865948
-7.974154 -13.120821 -2.863009
-8.031823 -13.034824 -2.854945
-8.097652 -12.962885 -2.850017
-8.160997 -12.887622 -2.844426
-8.260050 -12.868665 -2.851375
-8.365601 -12.858852 -2.860520
-8.435566 -12.793967 -2.857547
-8.529446 -12.765217 -2.862761
-8.627444 -12.741933 -2.869358
-8.729272 -12.723457 -2.877205
-8.847638 -12.727860 -2.890423
-8.953731 -12.713321 -2.899543
-9.046925 -12.679664 -2.904473
-9.139889 -12.645128 -2.909353
-9.219632 -12.591986 -2.910088
-9.294636 -12.532366 -2.909435
-9.371038 -12.474673 -2.909335
-9.445343 -12.414229 -2.908700
-9.523547 -12.358907 -2.909375
-9.600353 -12.301716 -2.909725
-9.686350 -12.256111 -2.912941
-9.772221 -12.210003 -2.916179
-9.831836 -12.131157 -2.911702
-9.901072 -12.064491 -2.910228
-9.973297 -12.001569 -2.909757
-10.044567 -11.937554 -2.909124
-10.140265 -11.902271 -2.915634
-10.216991 -11.844332 -2.916743
-10.276511 -11.766576 -2.913069
-10.329179 -11.681431 -2.907626
-10.361012 -11.573543 -2.896541
-10.432906 -11.510938 -2.896840
-10.506768 -11.450443 -2.897785
-10.572318 -11.380903 -2.896550
-10.669718 -11.345343 -2.904107
-10.743618 -11.284374 -2.905321
-10.826928 -11.233049 -2.909156
-10.916021 -11.187283 -2.914595
-10.981138 -11.116730 -2.913714
-11.039885 -11.039885 -2.911273
-11.080096 -10.944951 -2.904112
-11.098072 -10.828973 -2.891353
-11.116214 -10.714317 -2.878898
-11.109119 -10.576761 -2.860199
-11.188329 -10.522053 -2.863916
-11.311049 -10.507427 -2.878771
-11.364237 -10.427667 -2.875969
-11.402707 -10.334811 -2.869602
-11.437620 -10.239329 -2.862523
-11.505709 -10.173799 -2.863887
-11.620271 -10.148733 -2.876848
-11.718055 -10.108064 -2.885647
-11.816993 -10.067612 -2.894744
-11.909485 -10.020949 -2.902284
-11.970349 -9.947353 -2.902187
-12.023659 -9.867562 -2.900378
-12.070060 -9.782320 -2.897037
-12.131296 -9.709227 -2.897381
-12.210268 -9.650119 -2.902046
-12.292173 -9.592906 -2.907467
-12.382268 -9.541549 -2.914875
-12.468279 -9.486467 -2.921365
-12.521347 -9.406099 -2.920220
-12.581006 -9.330710 -2.920727
-12.621882 -9.241522 -2.916997
-12.667256 -9.155883 -2.914445
-12.720291 -9.075913 -2.913779
-12.752626 -8.981413 -2.908507
-12.804597 -8.900981 -2.907849
-12.848459 -8.815033 -2.905472
-12.886326 -8.725211 -2.901873
-12.956925 -8.657541 -2.905754
-13.001964 -8.572707 -2.904004
-13.012399 -8.465494 -2.894678
-13.066103 -8.386779 -2.895122
-13.096520 -8.293280 -2.890532
-13.155101 -8.217725 -2.892278
-13.253877 -8.166799 -2.902923
-13.312150 -8.090434 -2.904758
-13.389636 -8.025439 -2.910866
-13.462039 -7.956969 -2.915937
-13.525093 -7.882659 -2.919063
-13.593629 -7.811258 -2.923455
-13.652696 -7.734157 -2.925897
-13.709868 -7.655809 -2.928027
-13.784044 -7.586656 -2.933872
-13.809465 -7.490615 -2.929444
-13.810459 -7.381844 -2.919992
-13.772130 -7.253063 -2.902423
-13.725342 -7.121191 -2.883300
-13.724460 -7.014190 -2.874019
-13.742653 -6.917470 -2.868887
-13.780819 -6.831024 -2.868050
-13.833039 -6.751495 -2.870242
-13.882814 -6.670626 -2.872023
-13.932288 -6.589482 -2.873839
-13.979681 -6.507233 -2.875325
-14.012448 -6.418173 -2.873910
-14.039240 -6.326520 -2.871389
-14.072845 -6.238063 -2.870380
-14.221551 -6.199854 -2.892897
-14.480870 -6.207444 -2.937844
-14.706907 -6.197794 -2.975930
-14.918421 -6.179412 -3.011001
-14.964868 -6.091345 -3.012775
-14.368499 -5.746081 -2.885559
-15.567931 -6.115213 -3.118841
-15.177089 -5.641482 -3.019223
-15.090548 -5.504164 -2.995231
-15.371265 -5.499926 -3.044194
-15.245663 -5.349693 -3.012761
-15.262381 -5.250604 -3.009642
-15.189150 -5.121399 -2.988948
-15.248896 -5.037555 -2.994566
-15.296891 -4.949515 -2.997970
-15.251973 -4.831803 -2.983301
-15.122997 -4.689034 -2.952389
-14.858748 -4.507352 -2.895347
-14.572281 -4.322991 -2.834305
-12.315087 -3.571309 -2.390974
-6.513396 -1.845600 -1.262353
-7.820145 -2.164126 -1.513011
-13.005650 -3.513379 -2.512063
-14.800808 -3.901044 -2.854124
-14.693316 -3.776447 -2.828874
-14.487668 -3.628972 -2.784941
-14.071432 -3.433091 -2.700829
-12.697800 -3.015530 -2.433581
-8.170714 -1.887531 -1.563699
-3.646771 -0.818910 -0.696939
-3.523401 -0.768528 -0.672447
-11.585551 -2.452680 -2.208209
-15.798529 -3.243421 -3.007354
-15.747520 -3.132377 -2.993929
-15.785394 -3.039341 -2.997528
-15.891067 -2.958685 -3.014090
-15.946978 -2.867967 -3.021300
-16.012275 -2.778393 -3.030385
-16.165477 -2.702907 -3.056182
-16.232410 -2.611817 -3.065749
-16.176163 -2.501040 -3.052170
-15.997173 -2.372956 -3.015593
-16.095178 -2.286653 -3.031366
-1.931628 -0.250286 -0.363197
-16.846560 -2.077825 -3.165140
-16.677613 -1.953175 -3.131088
-16.690232 -1.850912 -3.131266
-16.729835 -1.751458 -3.136621
-16.753237 -1.650050 -3.139051
-16.748700 -1.545899 -3.136364
-16.764931 -1.443710 -3.137686
-16.815014 -1.344135 -3.145457
-16.746543 -1.235299 -3.131171
-16.648266 -1.125387 -3.111446
-16.457194 -1.011070 -3.074519
-16.113909 -0.890769 -3.009309
-14.163126 -0.695790 -2.644149
-14.200631 -0.610313 -2.650402
-16.656583 -0.613498 -3.108019
-16.996898 -0.521622 -3.170863
-16.808419 -0.412624 -3.135169
-16.645704 -0.306445 -3.104410
-16.411002 -0.201403 -3.060350
-16.345514 -0.100296 -3.047966
-16.461963 0.000000 -3.199881
-16.503240 0.101264 -3.207965
-16.530297 0.202867 -3.213406
-16.613909 0.305860 -3.229964
-16.622014 0.408048 -3.231966
-16.622141 0.510121 -3.232538
-16.621142 0.612193 -3.233013
-16.625597 0.714533 -3.234672
-16.638602 0.817402 -3.238117
-16.650831 0.920450 -3.241535
-16.655862 1.023275 -3.243676
-16.648756 1.125420 -3.243576
-16.649663 1.228153 -3.245160
-16.625603 1.328994 -3.241998
-16.615772 1.430865 -3.241732
-16.608980 1.533003 -3.242181
-16.610178 1.635960 -3.244314
-16.640166 1.742070 -3.252198
-16.667811 1.848425 -3.259756
-16.680388 1.953500 -3.264499
-16.706540 2.060555 -3.272030
-16.721088 2.166590 -3.277421
-16.731517 2.272412 -3.282136
-16.752326 2.380014 -3.289021
-16.764357 2.486757 -3.294317
-16.781048 2.594563 -3.300663
-16.802866 2.703604 -3.308155
-16.789455 2.807238 -3.308844
-16.784213 2.912337 -3.311270
-16.772503 3.016433 -3.312549
-16.756342 3.119786 -3.313076
-16.779508 3.230749 -3.321513
-16.768391 3.335440 -3.323301
-16.769319 3.442723 -3.327609
-16.775758 3.551455 -3.333148
-16.746066 3.652668 -3.331640
-16.743463 3.759870 -3.335649
-16.729848 3.864793 -3.337598
-16.699786 3.965940 -3.336393
-16.676818 4.068743 -3.336729
-16.646737 4.169791 -3.335767
-16.613133 4.269874 -3.334220
-16.585540 4.371445 -3.334003
-16.535817 4.467028 -3.329455
-16.512288 4.569566 -3.330300
-16.472545 4.667569 -3.327998
-16.419591 4.761593 -3.323140
-16.415723 4.869864 -3.328342
-16.376961 4.967897 -3.326601
-16.328234 5.062729 -3.322951
-16.302517 5.164613 -3.324104
-16.238682 5.254245 -3.317599
-16.169917 5.341819 -3.310185
-16.115507 5.433744 -3.305809
-16.040427 5.518269 -3.297292
-15.988805 5.610461 -3.293695
-15.942439 5.704296 -3.291292
-15.884400 5.793716 -3.286587
-15.835403 5.886184 -3.283860
-15.778810 5.975596 -3.279666
-15.717783 6.063018 -3.274653
-15.653502 6.148826 -3.269059
-15.588023 6.233778 -3.263312
-15.520711 6.317597 -3.257274
-15.464274 6.405512 -3.253617
-15.404937 6.491959 -3.249453
-15.326561 6.569962 -3.241363
-15.235771 6.642001 -3.230721
-15.153188 6.716946 -3.221888
-15.088290 6.799254 -3.216899
-15.022729 6.880916 -3.211863
-14.971909 6.969093 -3.210079
-14.917006 7.055218 -3.207529
-14.854745 7.137634 -3.203499
-14.801454 7.224149 -3.201505
-14.719567 7.296353 -3.193417
-14.643414 7.370875 -3.186648
-14.575626 7.449197 -3.181783
-14.494644 7.520332 -3.174119
-14.446818 7.608386 -3.173809
-14.398354 7.696081 -3.173477
-14.347120 7.782253 -3.172649
-14.313445 7.878035 -3.175832
-14.265049 7.965831 -3.175880
-14.229315 8.060807 -3.178876
-14.180163 8.148296 -3.179005
-14.135553 8.238446 -3.180277
-14.098787 8.333329 -3.183450
-14.049324 8.420841 -3.183888
-14.009720 8.514381 -3.186693
-13.962070 8.603175 -3.187802
-13.891271 8.677596 -3.183734
-13.844030 8.766635 -3.185175
-13.799059 8.857244 -3.187273
-13.721025 8.926506 -3.181840
-13.689839 9.026250 -3.187392
-13.647732 9.119123 -3.190556
-13.594693 9.204840 -3.191301
-13.568767 9.309220 -3.198563
-13.524808 9.401627 -3.201739
-13.482548 9.495482 -3.205468
-13.457590 9.601974 -3.213481
-13.399553 9.685187 -3.213753
-13.334657 9.763404 -3.212496
-13.261151 9.835140 -3.209266
-13.180540 9.901289 -3.204400
-13.111054 9.975521 -3.202328
-13.030633 10.041167 -3.197674
-12.969684 10.121641 -3.197898
-12.933947 10.222063 -3.204491
-12.908904 10.331582 -3.213932
-12.906147 10.459936 -3.229165
-12.875663 10.566783 -3.237699
-12.816488 10.650494 -3.239191
-12.753448 10.731081 -3.239839
-12.666253 10.791148 -3.234449
-12.588498 10.858913 -3.231547
-12.517205 10.932084 -3.230405
-12.441655 11.001400 -3.228268
-12.373503 11.077162 -3.228160
-12.314200 11.160941 -3.230494
-12.246016 11.236775 -3.230634
-12.206856 11.339589 -3.238598
-12.145829 11.422533 -3.240941
-12.088789 11.509484 -3.244504
-12.026868 11.592047 -3.246914
-11.940937 11.651401 -3.242955
-11.895794 11.750699 -3.250216
-11.844383 11.844383 -3.255965
-11.794679 11.940317 -3.262380
-11.760931 12.053189 -3.273441
-11.702298 12.141254 -3.277795
-11.651509 12.237963 -3.284541
-11.596970 12.331311 -3.290434
-11.532857 12.414906 -3.293795
-11.482581 12.513899 -3.301304
-11.427244 12.608021 -3.307574
-11.380630 12.712485 -3.316598
-11.344673 12.829869 -3.328998
-11.295798 12.933657 -3.337881
-11.248312 13.039920 -3.347430
-11.185626 13.129277 -3.352686
-11.104515 13.197258 -3.352584
-11.038652 13.283585 -3.357244
-10.962840 13.358259 -3.359052
-10.891651 13.438825 -3.362443
-10.822166 13.521868 -3.366542
-10.736614 13.585006 -3.365796
-10.655553 13.653829 -3.366585
-10.563130 13.707995 -3.363896
-10.458048 13.745250 -3.357228
-10.365349 13.798294 -3.354586
-10.254690 13.826848 -3.346168
-10.146944 13.858490 -3.338694
-10.046988 13.900109 -3.333806
-9.931029 13.918774 -3.323606
-9.819152 13.942125 -3.314732
-9.696573 13.949105 -3.302184
-9.572523 13.952548 -3.289032
-9.458847 13.969838 -3.279364
-9.351466 13.995458 -3.271847
-9.256582 14.039177 -3.268728
-9.176655 14.105531 -3.271005
-9.091811 14.164500 -3.271682
-8.998276 14.209830 -3.269337
-8.887855 14.227858 -3.260876
-8.764184 14.223371 -3.247461
-8.656769 14.244009 -3.239985
-8.562700 14.286001 -3.237524
-8.479243 14.345651 -3.239191
-8.407542 14.425689 -3.245553
-8.324106 14.486118 -3.247596
-8.245730 14.555749 -3.251803
-8.163968 14.619869 -3.254875
-8.080255 14.680854 -3.257352
-8.010125 14.767217 -3.265547
-7.932676 14.840993 -3.271037
-7.860930 14.926350 -3.279157
-7.791907 15.018076 -3.288743
-7.708104 15.082221 -3.292370
-7.625280 15.148830 -3.296635
-7.532899 15.196772 -3.296947
-7.438572 15.240782 -3.296531
-7.352744 15.302428 -3.300044
-7.267335 15.365489 -3.303964
-7.184935 15.435609 -3.309500
-7.106019 15.514185 -3.316936
-7.021101 15.580593 -3.321861
-6.936916 15.649431 -3.327400
-6.847093 15.706222 -3.330479
-6.758560 15.766528 -3.334410
-6.673935 15.836754 -3.340539
-6.585788 15.899498 -3.345186
-6.503270 15.976861 -3.353005
-6.412190 16.034154 -3.356708
-6.316817 16.081169 -3.358373
-6.220454 16.125920 -3.359684
-6.117181 16.152671 -3.357374
-6.013113 16.176874 -3.354673
-5.912429 16.209870 -3.353929
-5.816414 16.255789 -3.355982
-5.722521 16.308157 -3.359481
-5.633209 16.374532 -3.365971
-5.535888 16.418450 -3.367953
-5.436501 16.456525 -3.368857
-5.333810 16.484587 -3.367838
-5.231385 16.513288 -3.367080
-5.138267 16.571856 -3.372530
-5.045331 16.632228 -3.378453
-4.953254 16.696823 -3.385336
-4.864364 16.773979 -3.394864
-4.764242 16.813720 -3.396927
-4.663420 16.851435 -3.398702
-4.560618 16.882265 -3.399211
-4.457639 16.912566 -3.399741
-4.359700 16.962627 -3.404363
-4.265038 17.026984 -3.411963
-4.168294 17.084856 -3.418370
-4.071676 17.145021 -3.425344
-3.968897 17.180492 -3.427501
-3.863128 17.203288 -3.427255
-3.757029 17.224519 -3.426828
-3.649134 17.237158 -3.424823
-3.544961 17.267314 -3.426429
-3.440673 17.297430 -3.428151
-3.337756 17.335265 -3.431526
-3.234882 17.374523 -3.435303
-3.125462 17.378746 -3.432281
-3.017874 17.392437 -3.431264
-2.909023 17.398212 -3.428817
-2.799698 17.400089 -3.425737
-2.693392 17.420251 -3.426388
-2.586287 17.435330 -3.426168
-2.480404 17.458942 -3.427753
-2.374595 17.483876 -3.429723
-2.268124 17.504695 -3.431012
-2.159742 17.510724 -3.429532
-2.051398 17.516304 -3.428095
-1.941659 17.508527 -3.424177
-1.833560 17.514073 -3.422996
-1.724955 17.513767 -3.420804
-1.617208 17.521285 -3.420269
-1.509418 17.527964 -3.419701
-1.399783 17.511159 -3.414682
-1.290041 17.488653 -3.408686
-1.180579 17.464743 -3.402549
-1.070763 17.428820 -3.394207
-0.963425 17.428249 -3.392881
-0.856811 17.440787 -3.394234
-0.750142 17.454132 -3.395872
-0.643655 17.475332 -3.399164
-0.535590 17.452049 -3.393932
-0.427876 17.429734 -3.389018
-0.320404 17.403933 -3.383555
-0.213309 17.381076 -3.378793
-0.106566 17.367414 -3.375947
0.000000 17.363014 -3.375028
0.106488 17.354702 -3.373476
0.212883 17.346409 -3.372054
0.318995 17.327406 -3.368677
0.424920 17.309306 -3.365602
0.530556 17.288016 -3.362032
0.636063 17.269207 -3.359070
0.741968 17.263952 -3.358870
0.847956 17.260550 -3.359157
0.953693 17.252201 -3.358608
1.059128 17.239439 -3.357326
1.162606 17.198862 -3.350750
1.264995 17.149120 -3.342508
1.367423 17.106336 -3.335741
1.468797 17.056254 -3.327670
1.571283 17.023717 -3.323141
1.672545 16.981630 -3.316866
1.773002 16.935625 -3.309943
1.872848 16.888041 -3.302827
1.970607 16.826456 -3.293085
2.067689 16.764379 -3.283358
2.162773 16.691632 -3.271647
2.259108 16.633562 -3.262921
2.358485 16.600785 -3.259269
2.458353 16.572869 -3.256688
2.561624 16.568004 -3.258760
2.665867 16.568329 -3.261979
2.771701 16.576918 -3.266957
2.878613 16.589857 -3.272927
2.983511 16.589445 -3.276395
3.085547 16.572442 -3.276715
3.188983 16.562589 -3.278574
3.290008 16.539986 -3.278034
3.390920 16.516988 -3.277538
3.492499 16.497272 -3.277817
3.590784 16.462352 -3.275194
3.690095 16.432739 -3.273746
3.787986 16.397368 -3.271268
3.885529 16.361193 -3.268746
3.984467 16.331390 -3.267615
4.084399 16.305835 -3.267455
4.187114 16.291131 -3.269595
4.288668 16.271477 -3.270870
4.394179 16.266148 -3.275158
4.500975 16.264433 -3.280311
4.609386 16.267209 -3.286514
4.716796 16.265115 -3.291876
4.828189 16.275242 -3.299859
4.938765 16.280925 -3.307094
5.050474 16.288709 -3.314907
5.164837 16.303222 -3.324248
5.270160 16.287869 -3.327648
5.376498 16.274892 -3.331674
5.481516 16.257191 -3.334873
5.582898 16.228288 -3.335909
5.688991 16.212601 -3.339797
5.793111 16.190662 -3.342537
5.897004 16.167581 -3.345179
6.004675 16.154175 -3.349966
6.102132 16.112933 -3.349115
6.198809 16.069809 -3.347994
6.290320 16.013714 -3.344286
6.375667 15.942826 -3.337589
6.468220 15.890754 -3.334934
6.560840 15.839270 -3.332515
6.656525 15.795441 -3.331824
6.756706 15.762202 -3.333495
6.849675 15.712147 -3.331735
6.940127 15.656676 -3.328940
7.029730 15.599741 -3.325943
7.109294 15.521334 -3.318465
7.193486 15.453979 -3.313439
7.278285 15.388640 -3.308942
7.364082 15.326026 -3.305133
7.455279 15.275013 -3.303935
7.539832 15.210759 -3.299982
7.625599 15.149464 -3.296773
7.709421 15.084798 -3.292933
7.791748 15.017769 -3.288675
7.872909 14.949095 -3.284154
7.958190 14.888727 -3.281557
8.043637 14.828999 -3.279210
8.131774 14.774459 -3.278121
8.217601 14.715914 -3.276257
8.301766 14.654666 -3.273901
8.382208 14.587231 -3.270264
8.459981 14.515663 -3.265796
8.536131 14.441898 -3.260923
8.618595 14.379258 -3.258658
8.694830 14.306634 -3.254230
8.774563 14.240214 -3.251307
8.850106 14.167428 -3.247026
8.916456 14.080623 -3.239610
8.982471 13.994155 -3.232336
9.043443 13.900770 -3.223522
9.115373 13.825009 -3.218863
9.193707 13.759355 -3.216651
9.278257 13.703123 -3.216754
9.372487 13.660983 -3.220301
9.459125 13.607522 -3.221320
9.540076 13.545867 -3.220522
9.618687 13.481014 -3.219075
9.684325 13.398360 -3.213467
9.753838 13.321593 -3.209349
9.825701 13.248424 -3.206186
9.897662 13.175712 -3.203226
9.970531 13.104495 -3.200726
10.033412 13.020569 -3.195204
10.093844 12.934066 -3.189115
10.146379 12.838183 -3.180765
10.198931 12.743162 -3.172668
10.255011 12.653297 -3.165901
10.319769 12.574675 -3.162013
10.387433 12.499928 -3.159185
10.465746 12.438108 -3.159732
10.530145 12.359897 -3.156218
10.586926 12.273190 -3.150606
10.639192 12.181845 -3.143856
10.685354 12.084235 -3.135527
10.746440 12.004078 -3.131779
10.809029 11.925925 -3.128634
10.879683 11.856852 -3.127968
10.955999 11.793928 -3.129044
11.023127 11.721131 -3.127616
11.087179 11.645229 -3.125457
11.150450 11.568707 -3.123224
11.214811 11.493498 -3.121438
11.297555 11.437055 -3.124877
11.383043 11.383043 -3.129145
11.475101 11.335138 -3.135272
11.560095 11.279794 -3.139525
11.628608 11.208186 -3.139395
11.679731 11.120028 -3.134717
11.726295 11.027983 -3.128994
11.770812 10.934525 -3.122911
11.835919 10.860475 -3.122445
11.909923 10.794525 -3.124436
11.989513 10.733401 -3.127979
12.065130 10.668461 -3.130570
12.138197 10.601071 -3.132591
12.200859 10.524533 -3.132038
12.266874 10.450893 -3.132464
12.329294 10.374187 -3.132089
12.400075 10.304456 -3.133949
12.470669 10.234413 -3.135860
12.540388 10.163502 -3.137650
12.611938 10.093907 -3.139997
12.669207 10.012831 -3.138899
12.720981 9.927551 -3.136576
12.771874 9.841772 -3.134175
12.819413 9.753626 -3.131096
12.886491 9.680398 -3.132912
12.956349 9.609084 -3.135502
13.034083 9.543328 -3.140084
13.095703 9.465564 -3.140877
13.141154 9.376198 -3.137921
13.173255 9.277653 -3.131934
13.204443 9.178929 -3.125899
13.241984 9.085022 -3.121531
13.308563 9.011104 -3.124133
13.380662 8.940673 -3.128121
13.462974 8.876669 -3.134571
13.539490 8.808404 -3.139743
13.596454 8.727198 -3.140476
13.638276 8.636343 -3.137836
13.676514 8.543442 -3.134514
13.718195 8.452904 -3.132120
13.770015 8.368701 -3.132169
13.837802 8.294060 -3.135953
13.901652 8.216809 -3.138937
13.965698 8.139451 -3.142062
13.999605 8.044543 -3.138526
14.021441 7.943048 -3.132436
14.035112 7.837430 -3.124688
14.049950 7.733009 -3.117369
14.082265 7.638589 -3.114081
14.125641 7.550312 -3.113369
14.169395 7.462282 -3.112862
14.213729 7.374584 -3.112602
14.234310 7.274760 -3.107276
14.238546 7.167082 -3.098542
14.243710 7.060474 -3.090180
14.247231 6.953649 -3.081629
14.285180 6.863961 -3.080669
14.333599 6.779288 -3.082082
14.388394 6.697479 -3.084970
14.439925 6.613972 -3.087259
14.469364 6.520347 -3.084941
14.479722 6.418419 -3.078695
14.499519 6.321033 -3.074599
14.525727 6.226672 -3.071997
14.577995 6.143468 -3.075021
14.651915 6.069022 -3.082700
14.708188 5.986865 -3.086753
14.748376 5.897997 -3.087534
14.767593 5.800833 -3.084047
14.759337 5.693304 -3.074970
14.768724 5.593066 -3.069718
14.779174 5.493573 -3.064825
14.816975 5.404381 -3.065730
14.862438 5.317865 -3.068327
14.912068 5.232635 -3.071887
14.968628 5.149546 -3.076971
15.014073 5.062368 -3.079870
15.045266 4.970285 -3.079954
15.074613 4.877594 -3.079777
15.095493 4.782230 -3.077990
15.131829 4.691772 -3.079471
15.174741 4.603207 -3.082398
15.226945 4.517203 -3.087314
15.288970 4.433719 -3.094315
15.343241 4.347575 -3.099842
15.389380 4.258815 -3.103825
15.424155 4.166720 -3.105624
15.445788 4.071041 -3.104892
15.469891 3.976040 -3.104774
15.495787 3.881493 -3.105133
15.518801 3.786214 -3.105031
15.554450 3.693940 -3.107570
15.577815 3.598659 -3.107768
15.595776 3.502149 -3.107005
15.606736 3.404156 -3.104969
15.604930 3.303589 -3.100518
15.610404 3.204799 -3.097641
15.611496 3.105320 -3.094018
15.620321 3.007558 -3.092051
15.647923 2.913415 -3.093918
15.673816 2.818841 -3.095560
15.707183 2.725455 -3.098789
15.737341 2.631322 -3.101495
15.749219 2.534071 -3.100713
15.759267 2.436583 -3.099689
15.747427 2.335910 -3.094483
15.734948 2.235475 -3.089277
15.731785 2.136632 -3.086024
15.730257 2.038205 -3.083213
15.748443 1.942385 -3.084383
15.763479 1.846118 -3.085051
15.767211 1.748551 -3.083624
15.780582 1.652080 -3.084198
15.784776 1.554665 -3.083096
15.787659 1.457195 -3.081854
15.822819 1.362580 -3.087028
15.847396 1.266787 -3.090248
15.884154 1.171686 -3.095955
15.929660 1.076811 -3.103479
15.956423 0.980304 -3.107462
15.977600 0.883234 -3.110473
15.996041 0.785835 -3.113065
16.001823 0.687725 -3.113311
16.012398 0.589772 -3.114605
16.007171 0.491248 -3.112944
16.005940 0.392924 -3.112177
16.004749 0.294645 -3.111535
15.995131 0.196300 -3.109373
16.000959 0.098182 -3.110330
16.003851 -0.000000 -3.110834
16.010007 -0.098237 -3.112089
16.026531 -0.196685 -3.115477
16.028799 -0.295088 -3.116211
16.020616 -0.393284 -3.115031
16.003858 -0.491146 -3.112300
15.956823 -0.587725 -3.103795
15.926868 -0.684503 -3.098727
15.902230 -0.781226 -3.094808
15.887685 -0.878264 -3.092968
15.887936 -0.976097 -3.094125
15.883953 -1.073721 -3.094574
15.870109 -1.170650 -3.093218
15.862644 -1.268006 -3.093221
15.829635 -1.363167 -3.088357
15.811333 -1.459380 -3.086475
15.796680 -1.555837 -3.085421
15.779870 -1.652005 -3.084059
15.788338 -1.750894 -3.087756
15.788423 -1.849039 -3.089933
15.787410 -1.947191 -3.092015
15.792860 -2.046317 -3.095483
15.771233 -2.141990 -3.093762
15.762626 -2.239407 -3.094711
15.727581 -2.332966 -3.090583
15.695453 -2.426717 -3.087137
15.683377 -2.523477 -3.087750
15.665921 -2.619380 -3.087419
15.662057 -2.717625 -3.089886
15.643740 -2.813432 -3.089620
15.607165 -2.905826 -3.085860
15.563837 -2.996682 -3.080870
15.501818 -3.083503 -3.072281
15.446752 -3.171202 -3.065166
15.395465 -3.259245 -3.058900
15.347885 -3.347695 -3.053471
15.300947 -3.435943 -3.048269
15.270449 -3.527654 -3.046448
15.227242 -3.616233 -3.042198
15.200613 -3.708584 -3.041367
15.166844 -3.799097 -3.039217
15.126899 -3.887885 -3.035936
15.101933 -3.980411 -3.035770
15.059018 -4.068082 -3.032104
15.018403 -4.156152 -3.029004
14.986033 -4.246359 -3.027674
14.943819 -4.333627 -3.024461
14.904964 -4.421684 -3.022031
14.874702 -4.512192 -3.021452
14.848912 -4.604051 -3.021895
14.831598 -4.698628 -3.024182
14.816467 -4.794068 -3.027037
14.794107 -4.887313 -3.028539
14.767758 -4.979316 -3.029342
14.717192 -5.063047 -3.025286
14.664868 -5.145892 -3.020964
14.626343 -5.233389 -3.019586
14.573902 -5.315721 -3.015436
14.548274 -5.407745 -3.016943
14.518803 -5.498419 -3.017771
14.486927 -5.588224 -3.018216
14.449857 -5.676024 -3.017692
14.393989 -5.756274 -3.013344
14.347395 -5.840007 -3.011034
14.288847 -5.918634 -3.006312
14.232371 -5.997815 -3.002117
14.178135 -6.077672 -2.998486
14.128226 -6.159169 -2.995867
14.079844 -6.241166 -2.993672
14.024832 -6.320027 -2.990165
13.975052 -6.401044 -2.987869
13.923414 -6.481042 -2.985275
13.879507 -6.564518 -2.984441
13.841930 -6.650981 -2.985080
13.813619 -6.742016 -2.987840
13.782033 -6.831626 -2.990019
13.746171 -6.919241 -2.991393
13.692720 -6.997968 -2.989049
13.640577 -7.077212 -2.987090
13.576251 -7.149903 -2.982555
13.490305 -7.210718 -2.973338
13.379506 -7.257394 -2.958676
13.268772 -7.303053 -2.944043
13.175492 -7.357405 -2.933308
13.099576 -7.420818 -2.926488
13.061663 -7.505576 -2.928252
13.014270 -7.584943 -2.928006
12.954830 -7.657174 -2.925149
12.919866 -7.743870 -2.927928
12.921812 -7.853207 -2.939234
12.951642 -7.980568 -2.957102
12.988985 -8.113956 -2.976939
13.031203 -8.251919 -2.998164
13.046565 -8.374239 -3.013464
13.016248 -8.467998 -3.018406
12.946282 -8.535994 -3.014270
12.832877 -8.574654 -3.000060
12.723554 -8.615000 -2.986804
12.630054 -8.665191 -2.977281
12.591567 -8.752895 -2.980813
12.601737 -8.875144 -2.996055
12.638441 -9.017513 -3.017880
12.665347 -9.154503 -3.037661
12.670923 -9.277428 -3.052594
12.656483 -9.386688 -3.062933
12.612175 -9.474330 -3.066222
12.558333 -9.554985 -3.067328
12.507719 -9.638219 -3.069352
12.455303 -9.720214 -3.071068
12.407443 -9.805952 -3.074045
12.348509 -9.883073 -3.074411
12.285512 -9.956935 -3.073880
12.217463 -10.026613 -3.072189
12.152302 -10.098557 -3.071328
12.091527 -10.174124 -3.071688
12.037714 -10.255657 -3.073945
11.982233 -10.335945 -3.075915
11.925082 -10.414945 -3.077591
11.857483 -10.484851 -3.076691
11.783709 -10.549159 -3.074286
11.702279 -10.606328 -3.069963
11.615139 -10.657891 -3.064201
11.531942 -10.712626 -3.059536
11.457827 -10.775503 -3.057357
11.388927 -10.843160 -3.056668
11.322499 -10.913144 -3.056754
11.264383 -10.991251 -3.059215
11.202580 -11.065940 -3.060813
11.147069 -11.147069 -3.064277
11.084761 -11.221633 -3.066019
11.014017 -11.287715 -3.065551
10.941533 -11.351953 -3.064706
10.857642 -11.404138 -3.060751
10.771020 -11.453060 -3.056085
10.671916 -11.488119 -3.047910
10.575411 -11.525250 -3.040488
10.480913 -11.563906 -3.033662
10.365222 -11.578246 -3.020683
10.254330 -11.596783 -3.009046
10.128343 -11.596924 -2.992901
9.995114 -11.587114 -2.974486
9.871396 -11.586682 -2.958770
9.759327 -11.598559 -2.946456
9.656829 -11.620741 -2.936983
9.567320 -11.657813 -2.931460
9.483381 -11.701210 -2.927685
9.396118 -11.740078 -2.922930
9.310665 -11.780757 -2.918779
9.222003 -11.816905 -2.913660
9.132336 -11.851224 -2.908251
9.034492 -11.874238 -2.900240
8.934872 -11.894052 -2.891634
8.845946 -11.927378 -2.886486
8.754302 -11.956448 -2.880467
8.684010 -12.014414 -2.881541
8.615288 -12.074705 -2.883268
8.551154 -12.141706 -2.886683
8.495199 -12.220856 -2.893054
8.436023 -12.296028 -2.898541
8.372201 -12.364963 -2.902626
8.316046 -12.445843 -2.909579
8.240827 -12.498612 -2.910040
8.165416 -12.551146 -2.910551
8.092300 -12.607321 -2.912008
8.015123 -12.657263 -2.912129
7.950211 -12.726859 -2.916863
7.883074 -12.793419 -2.920977
7.814801 -12.858619 -2.924860
7.748426 -12.927468 -2.929651
7.667007 -12.971467 -2.928905
7.588320 -13.020065 -2.929310
7.510663 -13.070515 -2.930237
7.431046 -13.117631 -2.930522
7.355668 -13.172381 -2.932615
7.272818 -13.213838 -2.931854
7.185990 -13.247868 -2.929566
7.101165 -13.285346 -2.928164
7.003645 -13.298535 -2.921544
6.910848 -13.319928 -2.916873
6.830141 -13.364336 -2.917365
6.746372 -13.402739 -2.916657
6.677072 -13.470239 -2.922375
6.601775 -13.526281 -2.925690
6.525263 -13.580288 -2.928656
6.451278 -13.640081 -2.932959
6.373314 -13.691980 -2.935654
6.292747 -13.738612 -2.937318
6.214319 -13.790256 -2.940152
6.140369 -13.852450 -2.945324
6.068296 -13.919777 -2.951666
5.990260 -13.974218 -2.955361
5.912716 -14.030437 -2.959522
5.827638 -14.069163 -2.960092
5.720392 -14.053531 -2.949362
5.616956 -14.045613 -2.940412
5.521719 -14.057031 -2.935654
5.433316 -14.085342 -2.934549
5.359958 -14.153193 -2.941778
5.289346 -14.229748 -2.950888
5.223434 -14.320879 -2.963084
5.145160 -14.379759 -2.968679
5.064656 -14.433359 -2.973273
4.977932 -14.469781 -2.974427
4.883193 -14.482673 -2.970863
4.798038 -14.523869 -2.973218
4.714105 -14.569334 -2.976548
4.629150 -14.612285 -2.979463
4.546862 -14.664467 -2.984358
4.464033 -14.715944 -2.989204
4.380118 -14.764849 -2.993622
4.297898 -14.820613 -2.999525
4.212239 -14.865620 -3.003346
4.122240 -14.895863 -3.004290
4.030389 -14.919491 -3.004011
3.930967 -14.914339 -2.998060
3.833719 -14.916150 -2.993639
3.733266 -14.904032 -2.986554
3.635610 -14.901507 -2.981521
3.539191 -14.902832 -2.977385
3.442320 -14.901054 -2.972754
3.344626 -14.894297 -2.967256
3.247679 -14.889347 -2.962244
3.152679 -14.892089 -2.958885
3.055044 -14.880953 -2.952892
2.958927 -14.875530 -2.948158
2.862846 -14.868731 -2.943274
2.764928 -14.850404 -2.936232
2.672785 -14.861688 -2.935166
2.581116 -14.875338 -2.934678
2.491896 -14.903468 -2.937156
2.402268 -14.930064 -2.939437
2.312519 -14.956848 -2.941861
2.224611 -14.997112 -2.947041
2.135370 -15.030333 -2.950938
2.045924 -15.063908 -2.955010
1.958801 -15.117435 -2.963096
1.866705 -15.134842 -2.964208
1.774351 -15.150686 -2.965122
1.679535 -15.144875 -2.961913
1.581223 -15.103761 -2.951919
1.485455 -15.082076 -2.945844
1.388563 -15.044081 -2.936703
1.294372 -15.030768 -2.932499
1.202407 -15.042009 -2.933197
1.110405 -15.053396 -2.934034
1.019312 -15.079057 -2.937761
0.927890 -15.103276 -2.941315
0.835337 -15.111149 -2.941794
0.744352 -15.151640 -2.948732
0.651352 -15.155522 -2.948655
0.559414 -15.188174 -2.954284
0.467441 -15.231430 -2.962084
0.374389 -15.250924 -2.965372
0.281788 -15.306380 -2.975763
0.188258 -15.339893 -2.981998
0.094228 -15.356552 -2.985067
0.000000 -15.375312 -2.988658
-0.094308 -15.369627 -2.987609
-0.188592 -15.367127 -2.987292
-0.282944 -15.369149 -2.987966
-0.377062 -15.359805 -2.986543
-0.470373 -15.326964 -2.980663
-0.563471 -15.298322 -2.975709
-0.655188 -15.244778 -2.966020
-0.747438 -15.214456 -2.960957
-0.840124 -15.197749 -2.958653
-0.931960 -15.169516 -2.954215
-1.026239 -15.181533 -2.957726
-1.119755 -15.180146 -2.958738
-1.212702 -15.170798 -2.958311
-1.306792 -15.174991 -2.960637
-1.395994 -15.124594 -2.952420
-1.485954 -15.087147 -2.946834
-1.575945 -15.053344 -2.942065
-1.663115 -14.996812 -2.932956
-1.753394 -14.971733 -2.930100
-1.840921 -14.925791 -2.923264
-1.926948 -14.871606 -2.914913
-2.010680 -14.804412 -2.904106
-2.091396 -14.720812 -2.890170
-2.172329 -14.644650 -2.877779
-2.247620 -14.537096 -2.859300
-2.321958 -14.430940 -2.841169
-2.402712 -14.370077 -2.832036
-2.477231 -14.276635 -2.816563
-2.558468 -14.226046 -2.809627
-2.644124 -14.201567 -2.807944
-2.721027 -14.132166 -2.797470
-2.808821 -14.120899 -2.798599
-2.892756 -14.090459 -2.796031
-2.969481 -14.026729 -2.786948
-3.056117 -14.011110 -2.787518
-3.130580 -13.941106 -2.777360
-3.206480 -13.880155 -2.769085
-3.290739 -13.856649 -2.768372
-3.363435 -13.785928 -2.758314
-3.444893 -13.752785 -2.755860
-3.527119 -13.723236 -2.754224
-3.599241 -13.655748 -2.745060
-3.679394 -13.620195 -2.742400
-3.754166 -13.565813 -2.736037
-3.832744 -13.526325 -2.732765
-3.923318 -13.528934 -2.738104
-4.005683 -13.502674 -2.737712
-4.092593 -13.491472 -2.740481
-4.181414 -13.485829 -2.744494
-4.252362 -13.422922 -2.736951
-4.336956 -13.403726 -2.738411
-4.417937 -13.373286 -2.737679
-4.491227 -13.320172 -2.732396
-4.579737 -13.312315 -2.736497
-4.656430 -13.269989 -2.733619
-4.737052 -13.239172 -2.733207
-4.826442 -13.232463 -2.737884
-4.909926 -13.209009 -2.739213
-4.999084 -13.200290 -2.743714
-5.087654 -13.189246 -2.747856
-5.165433 -13.150010 -2.746233
-5.241085 -13.105720 -2.743648
-5.315235 -13.058165 -2.740469
-5.397079 -13.029702 -2.741394
-5.492634 -13.033614 -2.749256
-5.592935 -13.047330 -2.759336
-5.704530 -13.085352 -2.774728
-5.806536 -13.099336 -2.785196
-5.910469 -13.115979 -2.796393
-6.002802 -13.105590 -2.801978
-6.083349 -13.069039 -2.802091
-6.170306 -13.046015 -2.805220
-6.255748 -13.019376 -2.807693
-6.342608 -12.995278 -2.810836
-6.445148 -13.002358 -2.820868
-6.538696 -12.990157 -2.826872
-6.634526 -12.981582 -2.833812
-6.733497 -12.978102 -2.842018
-6.811206 -12.933131 -2.841268
-6.907932 -12.923832 -2.848484
-6.994390 -12.894641 -2.851455
-7.079602 -12.862788 -2.853964
-7.183923 -12.864823 -2.864142
-7.271801 -12.836523 -2.867722
-7.360771 -12.809664 -2.871757
-7.447577 -12.778578 -2.874979
-7.516933 -12.717563 -2.871575
-7.604464 -12.687282 -2.875219
-7.689500 -12.652446 -2.877963
-7.772726 -12.614336 -2.880089
-7.877720 -12.610813 -2.890266
-7.968948 -12.584345 -2.895352
-8.069406 -12.571654 -2.903770
-8.177463 -12.569663 -2.914845
-8.263449 -12.532922 -2.918028
-8.375081 -12.534195 -2.930234
-8.465712 -12.503071 -2.935047
-8.542849 -12.451734 -2.935245
-8.657873 -12.454873 -2.948453
-8.744231 -12.415854 -2.951862
-8.829476 -12.374899 -2.954950
-8.926138 -12.349401 -2.961884
-8.990206 -12.278640 -2.958088
-9.055702 -12.210200 -2.954931
-9.145153 -12.173976 -2.959688
-9.227301 -12.127652 -2.962135
-9.335006 -12.114233 -2.972792
-9.427484 -12.080205 -2.978581
-9.520457 -12.046206 -2.984546
-9.606342 -12.002745 -2.988326
-9.649508 -11.906188 -2.978971
-9.705960 -11.826747 -2.973940
-9.772126 -11.759486 -2.972049
-9.816653 -11.666687 -2.963763
-9.906518 -11.627907 -2.969297
-9.971986 -11.560303 -2.967603
-10.014237 -11.466273 -2.959183
-10.071821 -11.390381 -2.955491
-10.068274 -11.246547 -2.934145
