4.794987 -13.938001 -4.296241
4.718911 -13.995441 -4.304940
4.639887 -14.045137 -4.311388
4.564000 -14.105424 -4.321216
4.482324 -14.148815 -4.326002
4.396545 -14.179666 -4.327105
4.312374 -14.215993 -4.330034
4.223974 -14.238508 -4.328916
4.138146 -14.269734 -4.330608
4.053890 -14.306782 -4.334221
3.968338 -14.339732 -4.336745
3.880798 -14.365742 -4.337328
3.789586 -14.377930 -4.333905
3.691960 -14.364597 -4.322976
3.595516 -14.354104 -4.313098
3.499481 -14.343549 -4.303393
3.406402 -14.343685 -4.297082
3.320096 -14.371974 -4.299373
3.232781 -14.396227 -4.300613
3.151448 -14.448166 -4.310271
3.065752 -14.481477 -4.314516
2.981285 -14.521678 -4.320961
2.896824 -14.563318 -4.327981
2.808483 -14.586390 -4.329635
2.722828 -14.624284 -4.335842
2.636337 -14.659026 -4.341265
2.547876 -14.683770 -4.343881
2.462782 -14.729344 -4.352811
2.373493 -14.751228 -4.354892
2.284517 -14.775740 -4.357908
2.194402 -14.793455 -4.359079
2.102954 -14.802165 -4.357762
2.011820 -14.812803 -4.357177
1.921659 -14.830784 -4.358916
1.830621 -14.842283 -4.358912
1.739320 -14.851559 -4.358420
1.646884 -14.850447 -4.355046
1.554671 -14.850142 -4.352077
1.463633 -14.860520 -4.352405
1.371668 -14.861033 -4.350008
1.282723 -14.895497 -4.357710
1.191393 -14.904221 -4.358041
1.100832 -14.923609 -4.361653
1.009079 -14.927688 -4.360954
0.913214 -14.864385 -4.340742
0.816960 -14.778715 -4.314179
0.720953 -14.675336 -4.282629
0.629886 -14.656041 -4.275790
0.541043 -14.689409 -4.284476
0.451747 -14.720030 -4.292517
0.364458 -14.846377 -4.328628
0.268597 -14.589841 -4.253272
0.172891 -14.087737 -4.106510
0.088130 -14.362750 -4.186439
-3.411890 -6.883103 -2.239193
-6.949540 -13.806364 -4.505238
-6.993099 -13.683193 -4.478963
-6.965956 -13.426143 -4.408730
-7.037700 -13.363198 -4.402159
-7.146972 -13.371045 -4.419107
-7.204952 -13.282826 -4.404479
-7.212764 -13.104728 -4.360016
-7.273423 -13.025099 -4.348290
-7.345990 -12.967487 -4.344023
-7.399612 -12.877257 -4.328925
-7.453458 -12.788669 -4.314438
-7.503795 -12.695336 -4.298403
-7.570865 -12.631224 -4.292344
-7.639948 -12.570912 -4.287698
-7.716298 -12.522759 -4.287343
-7.800488 -12.487179 -4.291467
-7.889110 -12.458266 -4.298086
-7.978244 -12.429629 -4.305015
-8.053134 -12.378555 -4.304359
-8.114030 -12.306303 -4.296466
-8.165619 -12.220712 -4.283996
-8.216770 -12.135406 -4.271686
-8.269307 -12.053029 -4.260469
-8.333043 -11.987585 -4.255330
-8.392328 -11.916191 -4.248187
-8.456224 -11.851771 -4.243639
-8.516990 -11.783341 -4.237769
-8.583050 -11.722555 -4.234769
-8.654324 -11.669006 -4.234528
-8.725932 -11.615912 -4.234611
-8.791772 -11.555225 -4.232074
-8.866279 -11.505956 -4.233875
-8.934320 -11.448273 -4.232742
-9.000206 -11.387934 -4.230772
-9.065399 -11.326857 -4.228667
-9.116413 -11.248421 -4.220188
-9.166389 -11.169277 -4.211518
-9.217359 -11.091896 -4.203587
-9.272249 -11.019686 -4.197704
-9.342993 -10.966462 -4.199188
-9.409709 -10.908468 -4.199011
-9.480826 -10.855519 -4.200944
-9.554193 -10.804987 -4.203996
-9.618454 -10.744086 -4.203185
-9.698686 -10.700851 -4.209473
-9.782762 -10.661410 -4.217492
-9.863100 -10.617443 -4.223960
-9.953589 -10.583868 -4.234821
-10.037703 -10.542930 -4.243005
-10.123071 -10.502790 -4.251769
-10.214905 -10.468744 -4.263280
-10.291608 -10.418686 -4.268531
-10.370290 -10.370290 -4.274692
-10.449258 -10.321807 -4.281056
-10.530152 -10.274824 -4.288287
-10.619274 -10.235343 -4.298924
-10.703071 -10.190171 -4.307454
-10.779896 -10.137944 -4.313256
-10.846624 -10.075999 -4.315136
-10.905950 -10.007149 -4.314228
-10.977474 -9.949403 -4.318290
-11.043163 -9.886198 -4.320186
-11.109168 -9.823162 -4.322347
-11.183274 -9.767076 -4.327780
-11.256408 -9.709844 -4.332944
-11.331632 -9.654103 -4.339016
-11.403329 -9.595056 -4.343844
-11.476102 -9.536634 -4.349193
-11.546972 -9.476355 -4.353933
-11.620293 -9.417801 -4.359708
-11.700811 -9.364691 -4.368276
-11.786524 -9.315223 -4.378854
-11.865845 -9.260196 -4.387130
-11.939679 -9.200498 -4.393473
-12.006541 -9.135155 -4.397368
-12.060760 -9.060104 -4.396782
-12.116148 -8.985948 -4.396790
-12.170859 -8.911290 -4.396719
-12.220850 -8.833221 -4.395115
-12.278507 -8.760701 -4.396436
-12.326493 -8.681296 -4.394462
-12.369563 -8.598571 -4.390924
-12.417087 -8.519079 -4.389156
-12.450703 -8.430255 -4.382671
-12.483979 -8.341528 -4.376285
-12.518671 -8.254053 -4.370610
-12.558132 -8.169961 -4.366802
-12.612056 -8.095339 -4.368198
-12.674012 -8.025729 -4.372518
-12.740917 -7.958993 -4.378670
-12.807024 -7.891457 -4.384665
-12.853835 -7.811894 -4.384198
-12.897049 -7.730194 -4.382677
-12.935109 -7.645517 -4.379585
-12.973633 -7.561258 -4.376838
-13.015941 -7.479304 -4.375546
-13.044748 -7.389758 -4.369905
-13.084221 -7.306438 -4.368027
-13.102439 -7.211505 -4.359255
-13.119305 -7.116254 -4.350256
-13.141012 -7.024017 -4.343081
-13.148163 -6.924452 -4.331321
-13.169590 -6.832848 -4.324487
-13.192330 -6.742233 -4.318287
-13.216131 -6.652441 -4.312636
-13.242607 -6.564237 -4.308051
-13.269799 -6.476594 -4.303887
-13.287940 -6.384792 -4.296984
-13.320230 -6.300000 -4.294844
-13.345650 -6.212105 -4.290669
-13.368159 -6.123067 -4.285746
-13.427742 -6.050960 -4.292864
-13.482639 -5.976443 -4.298610
-13.539446 -5.902492 -4.305093
-13.583659 -5.822841 -4.307709
-13.601759 -5.732062 -4.302215
-13.629567 -5.645552 -4.299973
-13.664155 -5.561899 -4.300037
-13.677686 -5.469819 -4.293652
-13.703592 -5.382885 -4.291335
-13.689089 -5.280464 -4.276566
-13.677067 -5.179645 -4.262801
-13.670839 -5.081593 -4.251062
-13.631405 -4.971953 -4.229233
-13.599939 -4.866136 -4.210128
-13.594997 -4.770475 -4.199457
-13.619073 -4.685269 -4.197935
-13.679267 -4.612305 -4.207686
-13.735936 -4.537740 -4.216473
-13.795302 -4.463656 -4.226210
-13.834549 -4.382765 -4.229915
-13.859399 -4.297243 -4.229371
-13.898613 -4.216098 -4.233363
-13.920869 -4.129744 -4.232344
-13.940532 -4.042679 -4.230701
-13.966771 -3.957546 -4.231215
-13.999285 -3.874124 -4.233784
-14.018590 -3.787018 -4.232515
-14.042664 -3.701220 -4.232847
-14.055336 -3.612474 -4.229905
-14.055266 -3.520661 -4.223304
-14.067446 -3.432119 -4.220556
-14.063185 -3.339788 -4.213050
-14.073634 -3.251176 -4.210125
-14.064289 -3.158242 -4.201453
-14.054044 -3.065482 -4.192694
-14.072932 -2.979263 -4.192797
-14.069414 -2.888436 -4.186389
-14.110647 -2.806782 -4.193455
-14.144107 -2.723326 -4.198353
-14.157573 -2.635933 -4.197470
-14.195542 -2.552982 -4.204004
-14.222919 -2.467911 -4.207548
-14.285930 -2.388642 -4.221773
-14.346573 -2.308383 -4.235429
-14.369518 -2.221710 -4.238098
-14.426587 -2.139982 -4.250977
-14.484969 -2.057889 -4.264379
-14.544082 -1.975323 -4.278133
-14.574592 -1.888463 -4.283618
-14.539912 -1.793327 -4.270111
-14.496323 -1.697717 -4.254170
-14.502660 -1.608315 -4.253054
-14.560346 -1.524332 -4.267147
-14.637508 -1.441669 -4.287088
-14.674746 -1.354473 -4.295479
-14.645617 -1.261205 -4.284607
-14.632621 -1.169682 -4.278625
-14.680729 -1.082916 -4.290668
-14.723372 -0.995268 -4.301265
-14.811775 -0.909981 -4.325379
-14.904596 -0.823919 -4.350926
-14.878338 -0.730926 -4.341870
-14.766790 -0.634646 -4.308100
-14.726108 -0.542395 -4.295180
-14.635527 -0.449153 -4.267875
-14.678921 -0.360347 -4.279804
-14.784415 -0.272179 -4.309994
-14.704390 -0.180459 -4.286261
-14.868691 -0.091234 -4.333910
-11.617428 0.427895 -3.484994
-15.770567 0.677786 -4.732011
-15.951122 0.783628 -4.787540
-15.993356 0.884105 -4.801754
-15.977130 0.981577 -4.798600
-15.787770 1.067219 -4.743605
-15.714391 1.159163 -4.723605
-15.629864 1.249398 -4.700413
-15.530079 1.337370 -4.672784
-15.418580 1.423129 -4.641776
-15.473663 1.524023 -4.661086
-15.593728 1.632518 -4.700182
-15.670874 1.737867 -4.726560
-15.695381 1.838143 -4.737264
-15.715508 1.938323 -4.746840
-15.685889 2.032457 -4.741571
-15.649301 2.125430 -4.734364
-15.603069 2.216739 -4.724404
-15.527997 2.303361 -4.705864
-15.453148 2.389253 -4.687535
-15.380172 2.474691 -4.669917
-15.348384 2.566287 -4.664958
-15.346222 2.662822 -4.669180
-15.405940 2.770665 -4.692433
-15.468878 2.880079 -4.716897
-15.530466 2.990257 -4.741183
-15.561594 3.095394 -4.756394
-15.617366 3.206229 -4.779364
-15.697869 3.323264 -4.810150
-15.779345 3.441806 -4.841496
-15.881020 3.566202 -4.879315
-15.988292 3.693484 -4.919144
-16.078025 3.818281 -4.953868
-16.163726 3.943561 -4.987635
-16.223728 4.063832 -5.013750
-16.258967 4.178847 -5.032469
-16.305096 4.297529 -5.054814
-16.329021 4.411163 -5.070527
-16.380174 4.533005 -5.094952
-16.445156 4.659808 -5.123961
-16.506467 4.786787 -5.152119
-16.558602 4.912250 -5.177702
-16.609212 5.038349 -5.203096
-16.626829 5.155311 -5.218427
-16.649782 5.274626 -5.235690
-16.665627 5.392388 -5.250978
-16.677825 5.509609 -5.265375
-16.702881 5.631792 -5.284096
-16.689121 5.741435 -5.290788
-16.701197 5.860439 -5.305916
-16.712256 5.979741 -5.320986
-16.667468 6.079334 -5.318503
-16.656246 6.191300 -5.326944
-16.697227 6.323410 -5.352359
-16.772817 6.469990 -5.389214
-17.026829 6.688280 -5.483913
-16.778180 6.709732 -5.416987
-16.532611 6.729484 -5.350934
-17.143689 7.101148 -5.562713
-15.899606 9.007016 -5.477992
-16.293144 9.362471 -5.633267
-16.616814 9.684568 -5.765611
-16.614753 9.820434 -5.785696
-16.414802 9.838654 -5.736982
-16.338959 9.929971 -5.731662
-16.261824 10.020242 -5.726064
-16.011162 10.001849 -5.659305
-15.528505 9.833317 -5.509928
-14.696559 9.433326 -5.235171
-14.868477 9.673006 -5.317454
-14.174752 9.853429 -5.175065
-14.912769 10.502757 -5.467933
-14.053224 10.026959 -5.175233
-13.419195 9.699384 -4.963569
-8.368284 6.127111 -3.109157
-11.238783 8.551007 -4.233435
-14.625522 11.270159 -5.535100
-14.610690 11.402294 -5.555861
-14.328082 11.323887 -5.474715
-14.162266 11.334705 -5.437829
-14.064457 11.398701 -5.427027
-13.899960 11.407402 -5.390461
-13.664169 11.354917 -5.325940
-13.279286 11.173535 -5.202548
-12.866713 10.961932 -5.067167
-12.301742 10.611556 -4.870221
-11.494782 10.039135 -4.575049
-10.147741 8.973030 -4.060749
-9.065788 8.115988 -3.647651
-9.679473 8.772963 -3.916155
-10.961701 10.058305 -4.459809
-11.896979 11.051728 -4.867829
-12.124519 11.402493 -4.989464
-11.740232 11.177630 -4.859456
-10.570404 10.188241 -4.401040
-6.713522 6.550736 -2.811890
-0.686803 0.678426 -0.289399
-9.093784 9.319764 -3.903489
-12.870015 13.352772 -5.559492
-12.821652 13.467002 -5.574192
-12.500493 13.292047 -5.469923
-12.258300 13.195831 -5.399274
-12.081733 13.166864 -5.356988
-11.474269 12.659905 -5.121988
-3.622690 4.046648 -1.628183
-9.213539 10.419735 -4.169592
-12.571192 14.393979 -5.728961
-12.227735 14.175343 -5.611973
-12.041885 14.134323 -5.566376
-11.977239 14.234455 -5.576763
-11.919900 14.344052 -5.590941
-11.764381 14.334940 -5.559148
-11.628271 14.347715 -5.536328
-11.528118 14.403928 -5.530619
-11.403288 14.428548 -5.513102
-11.287172 14.463175 -5.499766
-11.173601 14.500217 -5.487678
-11.074089 14.554926 -5.482563
-10.978664 14.614735 -5.479614
-10.871851 14.658995 -5.471093
-10.716218 14.635992 -5.437865
-10.601808 14.667708 -5.425376
-10.529882 14.758094 -5.434808
-10.446369 14.832705 -5.438577
-10.410371 14.975947 -5.467573
-10.331153 15.058298 -5.474392
-10.308913 15.225307 -5.512008
-10.262716 15.359240 -5.537593
-10.191897 15.457740 -5.550455
-10.125439 15.563917 -5.566166
-10.073124 15.693327 -5.590237
-10.015226 15.815770 -5.611857
-9.954194 15.934874 -5.632340
-9.872338 16.021791 -5.641544
-9.770477 16.076524 -5.639600
-9.672386 16.137400 -5.640030
-9.594741 16.232913 -5.652729
-9.510442 16.318049 -5.661948
-9.420822 16.394691 -5.668376
-9.042989 15.963109 -5.499871
-8.890176 15.920347 -5.466241
-1.384945 2.516279 -0.861029
-6.923898 17.010236 -5.505522
-6.906169 17.269387 -5.575578
-6.835744 17.402239 -5.604823
-6.698030 17.363989 -5.579161
-6.529425 17.241218 -5.526737
-6.313507 16.985015 -5.432090
-6.134383 16.818392 -5.366662
-5.969506 16.683650 -5.311879
-5.813240 16.566690 -5.263184
-5.673015 16.490238 -5.227738
-5.537066 16.421941 -5.195218
-5.408660 16.372248 -5.168900
-5.285222 16.334421 -5.146623
-5.164782 16.303049 -5.126656
-5.052342 16.294735 -5.114197
-4.941983 16.291533 -5.103579
-4.830908 16.284408 -5.091965
-4.716158 16.262914 -5.076100
-4.600078 16.234362 -5.058282
-4.489473 16.222871 -5.046024
-4.379297 16.211060 -5.033897
-4.277636 16.229621 -5.031416
-4.174104 16.240511 -5.026757
-4.072500 16.258329 -5.024443
-3.971239 16.277172 -5.022641
-3.866490 16.281024 -5.016414
-3.761730 16.283712 -5.010036
-3.653399 16.269326 -4.998619
-3.542938 16.242996 -4.983756
-3.434465 16.223140 -4.971104
-3.327087 16.206059 -4.959521
-3.221217 16.194153 -4.949736
-3.115731 16.182138 -4.940127
-3.008712 16.159763 -4.927568
-2.901028 16.130808 -4.913218
-2.792657 16.094481 -4.896842
-2.686191 16.065500 -4.882917
-2.581889 16.046409 -4.872208
-2.478327 16.029258 -4.862291
-2.376609 16.021794 -4.855512
-2.273855 16.005097 -4.846133
-2.170190 15.978863 -4.834066
-2.065588 15.941588 -4.818864
-1.960028 15.891489 -4.799995
-1.854690 15.836678 -4.779912
-1.750358 15.783508 -4.760532
-1.648756 15.748831 -4.746932
-1.548705 15.724270 -4.736576
-1.448976 15.698614 -4.726080
-1.350322 15.680474 -4.718036
-1.249051 15.625524 -4.699108
-1.147858 15.561126 -4.677535
-1.048612 15.512510 -4.660900
-0.951633 15.489741 -4.652217
-0.857254 15.507621 -4.655919
-0.758004 15.429536 -4.630992
-0.657712 15.303494 -4.591864
-0.547486 14.864351 -4.459006
-0.440790 14.363008 -4.307721
4.556201 10.999642 -3.569118
5.800658 13.764532 -4.477723
5.870431 13.694678 -4.466633
5.885001 13.499326 -4.414611
5.947792 13.418004 -4.399869
5.997144 13.308320 -4.375887
6.040445 13.187775 -4.348356
6.093164 13.090125 -4.328405
6.150283 13.003681 -4.312218
6.201244 12.905942 -4.292344
6.266691 12.839732 -4.283032
6.343501 12.797297 -4.281780
6.427465 12.769179 -4.285487
6.521122 12.759688 -4.295650
6.614553 12.748851 -4.305584
6.699950 12.721879 -4.310278
6.775336 12.675762 -4.308658
6.841887 12.613490 -4.301680
6.905570 12.546593 -4.293235
6.955361 12.455519 -4.276594
7.009853 12.374121 -4.263334
7.051658 12.271726 -4.242883
7.091549 12.167703 -4.221883
7.146588 12.090992 -4.210403
7.184468 11.986561 -4.189309
6.945003 11.427437 -4.008713
6.687190 10.852622 -3.821392
1.156146 -1.928913 -0.674156
7.262343 -12.286833 -4.278600
7.465799 -12.809843 -4.444690
7.347293 -12.786208 -4.420763
7.289627 -12.867992 -4.433491
7.238407 -12.962394 -4.450629
7.114410 -12.926030 -4.423072
7.016367 -12.935156 -4.411380
6.908327 -12.924570 -4.393231
6.804803 -12.920974 -4.377733
6.705909 -12.924930 -4.365050
6.614579 -12.942554 -4.357213
6.524414 -12.961784 -4.350127
6.440087 -12.992148 -4.346974
6.353904 -13.018422 -4.342638
6.270502 -13.050082 -4.340283
6.197512 -13.103538 -4.345332
6.124552 -13.157557 -4.350702
6.049382 -13.207286 -4.354789
5.931657 -13.162998 -4.328104
5.759724 -12.993728 -4.260746
5.673366 -13.013865 -4.255854
5.565076 -12.982339 -4.234297
5.627057 -13.352590 -4.343715
5.578031 -13.466558 -4.369573
5.504405 -13.522907 -4.376815
5.432466 -13.584281 -4.385808
5.381350 -13.699685 -4.412323
5.321592 -13.795708 -4.432650
5.243266 -13.845061 -4.438086
5.141198 -13.831193 -4.423445
5.019533 -13.761854 -4.391337
4.884588 -13.651508 -4.346480
4.766919 -13.584862 -4.315867
4.674736 -13.588456 -4.307815
4.595440 -13.629248 -4.311726
4.531346 -13.716580 -4.330477
4.475499 -13.831904 -4.358134
4.411203 -13.924317 -4.378640
4.335419 -13.982526 -4.388497
4.237179 -13.968109 -4.375729
4.103703 -13.833089 -4.325463
3.964694 -13.671612 -4.267283
3.787256 -13.365790 -4.164496
3.089050 -11.162393 -3.471993
3.144296 -11.639395 -3.614293
3.851423 -14.612543 -4.530098
3.680545 -14.320186 -4.432378
3.614990 -14.431848 -4.459991
3.539629 -14.508105 -4.476761
3.463034 -14.582151 -4.492968
3.383060 -14.644534 -4.505708
3.291743 -14.658798 -4.503797
3.203665 -14.687563 -4.506510
3.104231 -14.663237 -4.493118
3.003852 -14.631599 -4.477691
2.910634 -14.632746 -4.472492
2.814239 -14.616284 -4.462099
2.722675 -14.623461 -4.459106
2.629779 -14.622559 -4.453826
2.532998 -14.598029 -4.441537
2.447917 -14.640440 -4.449787
2.363536 -14.689346 -4.460160
2.285352 -14.781138 -4.483688
2.172024 -14.642594 -4.437537
2.053314 -14.452763 -4.376106
1.899785 -13.987900 -4.231743
1.795204 -13.854848 -4.188079
0.178729 -1.449093 -0.437696
-15.517560 0.000000 -4.781237
-15.614092 0.095808 -4.811071
-15.708870 0.192787 -4.840548
-15.670909 0.288499 -4.829305
-15.672407 0.384736 -4.830403
-15.691153 0.481550 -4.837001
-15.692399 0.577985 -4.838387
-15.712166 0.675276 -4.845668
-15.777526 0.775100 -4.867200
-15.771650 0.871849 -4.866946
-15.757851 0.968105 -4.864430
-15.771709 1.066133 -4.870635
-15.787799 1.164578 -4.877719
-15.827138 1.265168 -4.892180
-15.872066 1.366821 -4.908567
-15.888684 1.466520 -4.916397
-15.901594 1.566170 -4.923272
-15.919848 1.666660 -4.931997
-15.903229 1.763635 -4.930108
-15.872936 1.858937 -4.924161
-15.861853 1.956373 -4.924354
-15.819127 2.049721 -4.914901
-15.776512 2.142707 -4.905654
-15.718480 2.233135 -4.891777
-15.653785 2.322020 -4.875986
-15.604321 2.412626 -4.865098
-15.602577 2.510476 -4.869265
-15.625473 2.612617 -4.881322
-15.633403 2.712653 -4.888907
-15.638437 2.812478 -4.895786
-15.626304 2.909390 -4.897484
-15.604357 3.004484 -4.896291
-15.541717 3.091440 -4.882496
-15.469232 3.175817 -4.865755
-15.415460 3.263478 -4.855049
-15.342616 3.346546 -4.838483
-15.305073 3.436869 -4.833203
-15.243918 3.521525 -4.820624
-15.138910 3.595256 -4.794303
-15.034058 3.667949 -4.768135
-14.822501 3.712843 -4.708175
-14.650236 3.765374 -4.660709
-14.222358 3.748582 -4.531819
-13.200095 3.565907 -4.212978
-7.377312 2.041577 -2.358516
-1.082071 0.306610 -0.346531
-5.550072 1.833496 -1.800975
-13.797077 4.652027 -4.486271
-14.561964 5.009645 -4.744888
-13.955682 4.897039 -4.557042
-7.595626 2.717758 -2.485649
-5.602612 3.128588 -1.977179
-13.428472 7.937128 -4.806262
-16.170176 9.692031 -5.808737
-16.451130 9.998143 -5.931589
-16.387456 10.097654 -5.930859
-16.058599 10.031482 -5.834009
-15.836821 10.028556 -5.775684
-15.868320 10.185447 -5.809855
-15.951670 10.377700 -5.863576
-15.915227 10.493536 -5.873738
-15.816324 10.568130 -5.861058
-15.702508 10.632022 -5.842947
-15.619997 10.716522 -5.836603
-15.523709 10.791142 -5.825255
-15.432213 10.868590 -5.815837
-15.355027 10.955793 -5.811974
-15.296769 11.056493 -5.815493
-15.246311 11.163083 -5.822241
-15.204486 11.276415 -5.832582
-15.154878 11.384421 -5.840239
-15.094046 11.484277 -5.843842
-15.026169 11.578890 -5.844960
-14.945673 11.663718 -5.841377
-14.864237 11.747626 -5.837612
-14.787173 11.834847 -5.835756
-14.715610 11.926436 -5.836285
-14.640746 12.015350 -5.835724
-14.570845 12.108364 -5.837366
-14.489853 12.192137 -5.834780
-14.419065 12.284474 -5.836518
-14.334503 12.365028 -5.832891
-14.260170 12.454328 -5.833630
-14.190314 12.547632 -5.836439
-14.119535 12.640266 -5.839119
-14.060247 12.743465 -5.846827
-13.994689 12.841333 -5.852221
-13.918668 12.929781 -5.853498
-13.850529 13.025717 -5.858345
-13.769523 13.109676 -5.857995
-13.683857 13.189129 -5.855870
-13.570992 13.241932 -5.842231
-13.378691 13.215509 -5.794247
-13.155608 13.155608 -5.732483
-12.942684 13.102497 -5.674628
-12.711827 13.027714 -5.608353
-12.246423 12.705790 -5.437315
-11.211424 11.775727 -5.009771
-11.303157 12.018893 -5.083619
-11.767916 12.667942 -5.327505
-11.825691 12.887826 -5.389359
-11.745777 12.959467 -5.389078
-11.544203 12.895201 -5.332797
-11.119881 12.575648 -5.172331
-9.809620 11.231987 -4.594844
-5.218124 6.049256 -2.461519
-0.766411 0.899585 -0.364132
-0.931646 1.178809 -0.462952
-8.608843 11.031212 -4.311447
-11.307787 14.674353 -5.708108
-11.324538 14.884098 -5.762558
-11.139832 14.829282 -5.714764
-10.980322 14.805250 -5.679431
-10.866434 14.841153 -5.667520
-10.753586 14.877693 -5.656169
-10.683657 14.973615 -5.667607
-10.649373 15.120948 -5.698533
-10.817184 15.561171 -5.839313
-10.481633 15.277633 -5.708674
-10.050773 14.844057 -5.523515
-10.243198 15.330029 -5.680852
-7.604462 16.602408 -5.626571
-7.988926 17.728303 -5.991412
-7.636099 17.226763 -5.805969
-7.257106 16.646732 -5.595367
-7.373415 17.200875 -5.766312
-5.786424 16.171972 -5.292236
-5.823207 16.595095 -5.418907
-5.701232 16.572261 -5.399926
-5.602676 16.616531 -5.403047
-5.503688 16.659902 -5.406067
-5.343753 16.515315 -5.348409
-5.216802 16.467254 -5.322378
-5.099850 16.447957 -5.305927
-4.981504 16.421817 -5.287535
-4.865660 16.401554 -5.271298
-4.753069 16.390196 -5.258175
-4.638452 16.369789 -5.242399
-4.523327 16.345202 -5.225538
-4.408341 16.318573 -5.208279
-4.297177 16.303760 -5.195038
-4.187413 16.292295 -5.183100
-4.081129 16.292779 -5.175190
-3.976211 16.297553 -5.168859
-3.869681 16.294462 -5.160251
-3.761318 16.281929 -5.148877
-3.651083 16.259012 -5.134448
-3.537903 16.219911 -5.115149
-3.426657 16.186256 -5.097808
-3.316231 16.153182 -5.080888
-3.207897 16.127186 -5.066424
-3.099239 16.096482 -5.050709
-2.989947 16.058977 -5.033089
-2.878888 16.007702 -5.011388
-2.768680 15.956297 -4.989883
-2.658848 15.901967 -4.967697
-2.550509 15.851383 -4.946913
-2.443391 15.803302 -4.927136
-2.337564 15.758575 -4.908627
-2.232670 15.715206 -4.890759
-2.127722 15.666175 -4.871345
-2.023287 15.615117 -4.851517
-1.918453 15.554404 -4.828905
-1.813630 15.486074 -4.804147
-1.709386 15.414052 -4.778460
-1.596052 15.245408 -4.723054
-1.485237 15.079868 -4.668859
-1.353058 14.659412 -4.536026
-1.219964 14.166707 -4.381171
-0.808584 10.115314 -3.126651
-0.292709 3.968165 -1.225984
-0.334294 4.945341 -1.527225
-0.779159 12.682376 -3.915034
-0.835723 15.118128 -4.665277
-0.755454 15.377615 -4.743832
-0.675602 15.719752 -4.848008
-0.583829 15.851048 -4.887303
-0.485215 15.810602 -4.873823
-0.386216 15.732675 -4.848979
-0.288535 15.672867 -4.829908
-0.191684 15.619058 -4.812873
-0.095575 15.576051 -4.799350
0.000000 15.542541 -4.788935
0.095039 15.488767 -4.772456
0.189706 15.457846 -4.763197
0.284182 15.436386 -4.757032
0.378667 15.425193 -4.754209
0.472717 15.403336 -4.748277
0.566964 15.393158 -4.746123
0.659712 15.350033 -4.733986
0.752323 15.313882 -4.724171
0.845837 15.301093 -4.721738
0.938578 15.277243 -4.716067
1.030466 15.244070 -4.707689
1.120569 15.191190 -4.693394
1.211922 15.161035 -4.686287
1.302751 15.128063 -4.678478
1.394074 15.103789 -4.673528
1.485993 15.087535 -4.671232
1.572887 15.024139 -4.654505
1.657198 14.943453 -4.632571
1.738466 14.844269 -4.605044
1.817000 14.731848 -4.573541
1.898287 14.650410 -4.551788
1.982765 14.598878 -4.539472
2.071477 14.580608 -4.537658
2.163281 14.583658 -4.542653
2.254217 14.579763 -4.545662
2.343993 14.567886 -4.546358
2.431117 14.539959 -4.542213
2.516114 14.500723 -4.534693
2.601763 14.466779 -4.528985
2.687539 14.434744 -4.524034
2.773922 14.406889 -4.520553
2.861164 14.384040 -4.518807
2.952487 14.381404 -4.523586
3.043033 14.374161 -4.527095
3.132844 14.362873 -4.529509
3.220931 14.343458 -4.529534
3.303707 14.301031 -4.522452
3.386334 14.259183 -4.515704
3.465604 14.204695 -4.505098
3.547842 14.163780 -4.498941
3.633023 14.135288 -4.496887
3.716466 14.100509 -4.492993
3.795682 14.050663 -4.484447
3.863851 13.962162 -4.463684
3.922734 13.843914 -4.433492
3.984046 13.738343 -4.407429
4.047306 13.642978 -4.384719
4.123977 13.594931 -4.377327
4.207507 13.569984 -4.377525
4.287506 13.533858 -4.374276
4.366224 13.494179 -4.370028
4.438205 13.434637 -4.359483
4.499861 13.345778 -4.339526
4.572172 13.290323 -4.330535
4.646733 13.242353 -4.324114
4.721969 13.197020 -4.318691
4.832388 13.248766 -4.345246
4.972504 13.377359 -4.397345
5.083163 13.422304 -4.422289
5.180734 13.430548 -4.435395
5.283961 13.451755 -4.453022
5.289823 13.227593 -4.389479
5.184090 12.735976 -4.236815
4.070466 9.826973 -3.277339
5.867807 13.021306 -4.400648
6.170121 13.470890 -4.565297
6.228288 13.380415 -4.547501
6.209035 13.127901 -4.474545
6.267223 13.043257 -4.458718
6.348472 13.007292 -4.459656
6.223253 12.554709 -4.317495
6.005584 11.931045 -4.115616
6.655941 13.023485 -4.506456
6.821691 13.148088 -4.563970
6.886261 13.075645 -4.553405
6.977961 13.054847 -4.560987
7.059025 13.013799 -4.561693
7.141301 12.974887 -4.563327
7.224704 12.937854 -4.565808
7.311519 12.906635 -4.570537
7.399322 12.876753 -4.575947
7.484625 12.842145 -4.579882
7.567564 12.803223 -4.582476
7.649565 12.762528 -4.584624
7.733440 12.724746 -4.588011
7.818343 12.688368 -4.592105
7.897983 12.643251 -4.593230
7.967509 12.582072 -4.588678
8.033329 12.515448 -4.582271
8.089058 12.433775 -4.570455
8.136261 12.340020 -4.554257
8.189735 12.256805 -4.542007
8.236814 12.165009 -4.526633
8.298329 12.095331 -4.519568
8.360361 12.026884 -4.513076
8.419038 11.954115 -4.505070
8.477295 11.881301 -4.497147
8.529880 11.801175 -4.486545
8.587072 11.728048 -4.478691
8.639396 11.648877 -4.468617
8.694161 11.573618 -4.460128
8.751147 11.501831 -4.453073
8.812811 11.436570 -4.448658
8.894399 11.397120 -4.454458
8.983652 11.366989 -4.464142
9.076401 11.340604 -4.475568
9.173933 11.319393 -4.489328
9.267405 11.292366 -4.501077
9.353801 11.256085 -4.509408
9.430400 11.207641 -4.513098
9.493544 11.143173 -4.510510
9.554079 11.075833 -4.506897
9.609448 11.002791 -4.501083
9.672107 10.938337 -4.498910
9.740047 10.879908 -4.499375
9.813451 10.827475 -4.502508
9.889600 10.777843 -4.507018
9.960908 10.722731 -4.509446
10.034309 10.669699 -4.512952
10.098647 10.606941 -4.512532
10.169083 10.550527 -4.514993
10.240897 10.495382 -4.518199
10.315471 10.442844 -4.522745
10.397864 10.397864 -4.530811
10.476697 10.348912 -4.537407
10.547657 10.291904 -4.540704
10.614442 10.230687 -4.542344
10.661725 10.150806 -4.535839
10.697307 10.060272 -4.524629
10.734119 9.971487 -4.514235
10.771387 9.883676 -4.504319
10.823122 9.809506 -4.500698
10.885838 9.745356 -4.501827
10.952868 9.684955 -4.504886
11.014491 9.619666 -4.505869
11.070984 9.549897 -4.504924
11.119073 9.473012 -4.500755
11.175238 9.403134 -4.500049
11.235361 9.336579 -4.501106
11.300652 9.274205 -4.504380
11.372633 9.217082 -4.510443
11.435963 9.152721 -4.513201
11.502360 9.090640 -4.517306
11.547792 9.011985 -4.513347
11.593906 8.934052 -4.509860
11.636216 8.853393 -4.505101
11.679908 8.774006 -4.501089
11.728034 8.698103 -4.498983
11.781784 8.626417 -4.499212
11.828095 8.549338 -4.496780
11.867302 8.467306 -4.491848
11.903316 8.383261 -4.485925
11.933829 8.295675 -4.478157
11.964576 8.208621 -4.470710
11.994303 8.121231 -4.463113
12.027177 8.036303 -4.456914
12.062155 7.953054 -4.451708
12.097758 7.870455 -4.446940
12.129893 7.785851 -4.441108
12.160588 7.700608 -4.434963
12.191814 7.615980 -4.429225
12.228589 7.535035 -4.425705
12.271485 7.457972 -4.424584
12.340664 7.396710 -4.433080
12.408059 7.333996 -4.441040
12.476938 7.271776 -4.449639
12.543617 7.207894 -4.457562
12.593770 7.134282 -4.459744
12.648584 7.063171 -4.463724
12.693297 6.986315 -4.464291
12.744086 6.912726 -4.467151
12.801325 6.842451 -4.472414
12.871270 6.778627 -4.482235
12.934510 6.710880 -4.489833
13.005127 6.646559 -4.500104
13.061177 6.574444 -4.505455
13.106646 6.496843 -4.507303
13.146602 6.416465 -4.507419
13.185411 6.335527 -4.507312
13.236255 6.260282 -4.511477
13.303230 6.192360 -4.521269
13.362933 6.120673 -4.528710
13.424742 6.049607 -4.536992
13.471360 5.971443 -4.540278
13.505571 5.887724 -4.539547
13.541705 5.804856 -4.539635
13.578766 5.722372 -4.540203
13.623758 5.643145 -4.543583
13.667406 5.563222 -4.546669
13.709622 5.482590 -4.549437
13.736946 5.395987 -4.547431
13.753091 5.305152 -4.541914
13.752566 5.208237 -4.531101
13.741917 5.108014 -4.517181
13.726587 5.006670 -4.501959
13.714325 4.907064 -4.487977
13.694552 4.805409 -4.471773
13.669559 4.702637 -4.454106
13.625050 4.594024 -4.430335
13.579175 4.485953 -4.406385
13.539193 4.380789 -4.384606
13.553020 4.293577 -4.380469
13.590531 4.213878 -4.384153
13.612131 4.129195 -4.382865
13.665568 4.054007 -4.391979
13.711954 3.976393 -4.398963
13.782479 3.905326 -4.413817
13.878040 3.840571 -4.436790
13.945849 3.767367 -4.450994
14.011810 3.693088 -4.464730
14.044130 3.609594 -4.467887
14.057837 3.521305 -4.465290
14.104615 3.441187 -4.473357
14.169704 3.365084 -4.487367
14.231295 3.287597 -4.500399
14.274607 3.205470 -4.507791
14.288091 3.116532 -4.505926
14.284844 3.024125 -4.498965
14.278586 2.931378 -4.491244
14.290331 2.842524 -4.489368
14.314790 2.756189 -4.491654
14.348887 2.671553 -4.497125
14.382639 2.586630 -4.502644
14.398420 2.498363 -4.502701
14.396931 2.407202 -4.497531
14.386297 2.314775 -4.489688
14.365212 2.221044 -4.478770
14.356568 2.129596 -4.471917
14.357452 2.039773 -4.468209
14.347148 1.948576 -4.461198
14.335649 1.857503 -4.453994
14.309328 1.764887 -4.442368
14.259429 1.669973 -4.423613
14.213407 1.576237 -4.406252
14.163992 1.482838 -4.388030
14.127198 1.391408 -4.373904
14.121489 1.303408 -4.369578
14.117701 1.215744 -4.366015
14.098264 1.126967 -4.357783
14.060495 1.037164 -4.344060
14.015172 0.947395 -4.328180
14.064304 0.864060 -4.341634
14.137088 0.781491 -4.362540
14.197872 0.697497 -4.379894
14.253929 0.612604 -4.395944
14.264913 0.525408 -4.398255
14.268670 0.437895 -4.398502
14.288618 0.350766 -4.403905
14.311674 0.263476 -4.410430
14.344018 0.176036 -4.419981
14.350002 0.088052 -4.421575
14.316752 -0.000000 -4.411247
14.299321 -0.087741 -4.405959
14.319029 -0.175730 -4.412281
14.372285 -0.264592 -4.429108
14.424262 -0.354096 -4.445712
14.442470 -0.443229 -4.452078
14.447465 -0.532132 -4.454540
14.440792 -0.620635 -4.453573
14.439649 -0.709374 -4.454479
14.461350 -0.799416 -4.462603
14.499565 -0.890800 -4.475998
14.528533 -0.982097 -4.486717
14.543875 -1.072821 -4.493403
14.558870 -1.163787 -4.500157
14.544929 -1.252534 -4.498139
14.521691 -1.340347 -4.493411
14.492312 -1.427368 -4.486946
14.492115 -1.517189 -4.489683
14.524038 -1.610686 -4.502550
14.543644 -1.703259 -4.511783
14.551781 -1.794791 -4.517638
14.520821 -1.881496 -4.511526
14.475472 -1.966005 -4.501100
14.427282 -2.049694 -4.489941
14.386954 -2.134103 -4.481382
14.380516 -2.223411 -4.483541
14.377113 -2.313297 -4.486822
14.375803 -2.403669 -4.490931
14.365825 -2.492707 -4.492508
14.330515 -2.577256 -4.486326
14.290005 -2.660590 -4.478671
14.252725 -2.744239 -4.472180
14.222210 -2.828973 -4.467968
14.206350 -2.916549 -4.468523
14.203908 -3.006990 -4.473474
14.191380 -3.095438 -4.475427
14.173514 -3.182769 -4.475867
14.147391 -3.268215 -4.473866
14.134044 -3.356616 -4.476074
14.110062 -3.442516 -4.475085
14.080674 -3.527025 -4.472544
14.079360 -3.618649 -4.479095
14.113348 -3.719850 -4.497084
14.159364 -3.825047 -4.519140
14.188403 -3.926460 -4.536013
14.188357 -4.020334 -4.543799
14.153348 -4.104395 -4.540567
14.113454 -4.186876 -4.535925
14.068704 -4.267695 -4.529874
14.048062 -4.355739 -4.531748
14.030679 -4.444898 -4.534853
14.017390 -4.535516 -4.539467
14.001649 -4.625520 -4.543476
13.966061 -4.709004 -4.541218
13.927532 -4.791386 -4.538164
13.886686 -4.872829 -4.534512
13.866347 -4.961458 -4.537726
13.866280 -5.057622 -4.547774
13.884648 -5.161068 -4.564099
13.896187 -5.262628 -4.578421
13.906361 -5.364276 -4.592531
13.897037 -5.458871 -4.600427
13.884476 -5.552516 -4.607461
13.879735 -5.649649 -4.617304
13.887461 -5.752375 -4.631529
13.901113 -5.858216 -4.647983
13.913354 -5.964169 -4.664224
13.914368 -6.065938 -4.676953
13.904008 -6.163223 -4.686095
13.862387 -6.246824 -4.684897
13.796531 -6.319276 -4.675657
13.718836 -6.385815 -4.662518
13.634202 -6.448497 -4.647114
13.572724 -6.521629 -4.639712
13.522802 -6.600077 -4.636403
13.487569 -6.685663 -4.638301
13.445147 -6.767718 -4.637906
13.390255 -6.843387 -4.633368
13.319877 -6.910821 -4.623602
13.255134 -6.980788 -4.615910
13.195850 -7.053329 -4.610249
13.161828 -7.139320 -4.613581
13.138576 -7.231394 -4.620897
13.119082 -7.325904 -4.629764
13.100481 -7.421331 -4.639182
13.072070 -7.511556 -4.645356
13.036698 -7.598014 -4.649266
12.996734 -7.681942 -4.651736
12.948101 -7.760793 -4.651286
12.903929 -7.842338 -4.652617
12.851501 -7.918863 -4.651146
12.814675 -8.005068 -4.655507
12.786980 -8.097266 -4.663408
12.750233 -8.184031 -4.668233
12.725071 -8.278567 -4.677530
12.695223 -8.370460 -4.685350
12.653662 -8.454907 -4.689070
12.624856 -8.548172 -4.697744
12.575061 -8.627461 -4.698825
12.522614 -8.704963 -4.699098
12.472015 -8.783784 -4.700247
12.408262 -8.853280 -4.696605
12.352234 -8.928185 -4.696046
12.299216 -9.005272 -4.696808
12.252940 -9.087400 -4.700341
12.225749 -9.184045 -4.711440
12.193668 -9.277530 -4.720926
12.165719 -9.374680 -4.732287
12.120363 -9.458824 -4.737131
12.058573 -9.530231 -4.735747
11.986272 -9.593158 -4.730381
11.900748 -9.645099 -4.719896
11.809796 -9.692049 -4.707322
11.726875 -9.745026 -4.698016
11.648806 -9.801607 -4.690746
11.572619 -9.859415 -4.684340
11.514876 -9.932800 -4.685549
11.442545 -9.993514 -4.680980
11.360854 -10.045713 -4.672690
11.275303 -10.094018 -4.662890
11.165329 -10.119664 -4.643002
11.049639 -10.138996 -4.620677
10.933414 -10.156622 -4.598049
10.807705 -10.164096 -4.571324
10.674088 -10.162576 -4.541098
10.540816 -10.159722 -4.510836
10.426999 -10.174172 -4.488761
10.330616 -10.204611 -4.474140
10.250811 -10.250811 -4.466734
10.187467 -10.313259 -4.466623
10.128958 -10.380661 -4.468813
10.084275 -10.462539 -4.477339
10.041641 -10.547065 -4.487059
9.983854 -10.616049 -4.490260
9.928749 -10.688113 -4.494887
9.866354 -10.752509 -4.496425
9.803421 -10.816408 -4.497906
9.748418 -10.889259 -4.503241
9.690752 -10.959424 -4.507583
9.642190 -11.040281 -4.516420
9.589208 -11.116557 -4.523468
9.524725 -11.179773 -4.525324
9.451203 -11.232366 -4.523054
9.371270 -11.277107 -4.517830
9.298635 -11.330419 -4.516245
9.230156 -11.388765 -4.516841
9.172715 -11.460945 -4.523061
9.114445 -11.532480 -4.529136
9.043440 -11.588098 -4.529100
8.946559 -11.610137 -4.516173
8.833262 -11.609757 -4.494857
8.706069 -11.589470 -4.466237
8.584324 -11.574621 -4.440132
8.468993 -11.566778 -4.417106
8.370467 -11.580625 -4.402697
8.272486 -11.594253 -4.388498
8.178020 -11.611897 -4.376100
8.079255 -11.622496 -4.361330
7.972283 -11.620098 -4.341991
7.864270 -11.614797 -4.321898
7.751337 -11.600696 -4.298872
7.648178 -11.599758 -4.281054
7.550403 -11.605803 -4.266106
7.466127 -11.631781 -4.258735
7.396844 -11.680893 -4.260019
7.329211 -11.732749 -4.262449
7.265013 -11.790370 -4.267107
7.208267 -11.860616 -4.276442
7.167450 -11.958168 -4.295677
7.153862 -12.103299 -4.331962
7.132674 -12.238266 -4.364522
7.104805 -12.364215 -4.393809
7.024952 -12.400775 -4.391400
6.913214 -12.380044 -4.368955
6.650851 -12.083798 -4.249927
6.332201 -11.673848 -4.092004
3.541285 -6.625279 -2.314681
2.808614 -5.754529 -1.972987
6.206422 -12.916719 -4.415462
6.356076 -13.438794 -4.580511
6.251525 -13.430336 -4.564467
6.124552 -13.371401 -4.531580
5.992789 -13.298656 -4.494380
5.724701 -12.914719 -4.352672
5.376212 -12.332239 -4.145162
3.349048 -7.812737 -2.619092
1.430353 -3.394121 -1.134860
1.309454 -3.161301 -1.054308
1.688609 -4.148477 -1.380054
0.577167 -1.443250 -0.478932
0.582451 -1.763104 -0.572120
2.948689 -9.113171 -2.951259
4.315172 -13.621188 -4.402501
4.357153 -14.052620 -4.533218
4.288698 -14.137943 -4.552168
4.193442 -14.135588 -4.543039
4.035763 -13.916681 -4.464642
3.897407 -13.754529 -4.404866
3.720298 -13.443431 -4.297846
3.382149 -12.519867 -3.995874
1.541039 -5.846800 -1.863027
3.001424 -14.177614 -4.465193
3.082338 -15.013900 -4.722533
2.963248 -14.897251 -4.680035
2.870096 -14.906389 -4.677285
2.772867 -14.893040 -4.667670
2.650862 -14.739791 -4.614455
2.527471 -14.566173 -4.555161
2.421732 -14.483829 -4.524678
2.313406 -14.377792 -4.487034
2.210982 -14.300131 -4.458479
2.113217 -14.246149 -4.437523
2.023382 -14.242081 -4.432304
1.936376 -14.257316 -4.433265
1.854736 -14.314296 -4.447360
1.772201 -14.368629 -4.460778
1.687846 -14.412043 -4.470957
1.600431 -14.431571 -4.473884
1.516115 -14.481855 -4.486504
1.439498 -14.615466 -4.525076
1.362536 -14.762097 -4.567799
1.279265 -14.855341 -4.594136
1.190425 -14.892114 -4.603163
1.097712 -14.881318 -4.597658
1.004104 -14.854080 -4.587252
0.910134 -14.814256 -4.573143
0.814952 -14.742383 -4.549327
0.722026 -14.697174 -4.533923
0.634414 -14.761395 -4.552448
0.546918 -14.848921 -4.578320
0.458936 -14.954295 -4.609855
0.362479 -14.765747 -4.550961
0.266924 -14.498953 -4.468143
0.174654 -14.231378 -4.385272
-6.805160 -13.116225 -4.552910
-7.186166 -13.645106 -4.751712
-7.200375 -13.470953 -4.706363
-7.290047 -13.439704 -4.710984
-7.420975 -13.483022 -4.742040
-7.473592 -13.383557 -4.723098
-7.522749 -13.279509 -4.702580
-7.579220 -13.189823 -4.687201
-7.612829 -13.062118 -4.658331
-7.633683 -12.915086 -4.622513
-7.672574 -12.800916 -4.598414
-7.735875 -12.728752 -4.589455
-7.809317 -12.673720 -4.586804
-7.897115 -12.641861 -4.592725
-7.984578 -12.609027 -4.598509
-8.068983 -12.570995 -4.602608
-8.152927 -12.531949 -4.606542
-8.220192 -12.467315 -4.601238
-8.270043 -12.376995 -4.586545
-8.309426 -12.272250 -4.566538
-8.343967 -12.161851 -4.544424
-8.387924 -12.066534 -4.527954
-8.443050 -11.988209 -4.517918
-8.492875 -11.903138 -4.505412
-8.538598 -11.813236 -4.491130
-8.589864 -11.731860 -4.480147
-8.640547 -11.650429 -4.469213
-8.711704 -11.596971 -4.469127
-8.793640 -11.557680 -4.474695
-8.887968 -11.534103 -4.486597
-8.979530 -11.506205 -4.497093
-9.058298 -11.461438 -4.501235
-9.129253 -11.406641 -4.501630
-9.180382 -11.327350 -4.492484
-9.227906 -11.244236 -4.481893
-9.287833 -11.176701 -4.477605
-9.351145 -11.113451 -4.475169
-9.433864 -11.073123 -4.482155
-9.509452 -11.024098 -4.485845
-9.580602 -10.969762 -4.487572
-9.644046 -10.906603 -4.485858
-9.693018 -10.827375 -4.477650
-9.760219 -10.768742 -4.478085
-9.837022 -10.720543 -4.483057
-9.920315 -10.679034 -4.491069
-10.005486 -10.639051 -4.499989
-10.084822 -10.592420 -4.506354
-10.156090 -10.537048 -4.509224
-10.234389 -10.488713 -4.515328
-10.297116 -10.424263 -4.514698
-10.364312 -10.364312 -4.516192
-10.432976 -10.305724 -4.518472
-10.491948 -10.237546 -4.516721
-10.562339 -10.180467 -4.520047
-10.632292 -10.122784 -4.523317
-10.694700 -10.057821 -4.523527
-10.763846 -9.999102 -4.526737
-10.827269 -9.934952 -4.527687
-10.898338 -9.877678 -4.531976
-10.976328 -9.826365 -4.539249
-11.053364 -9.773818 -4.546220
-11.139084 -9.728482 -4.556839
-11.218992 -9.677569 -4.565150
-11.289370 -9.618098 -4.569687
-11.366192 -9.563808 -4.576943
-11.424811 -9.494011 -4.577003
-11.489209 -9.428950 -4.579538
-11.558832 -9.367989 -4.584291
-11.624354 -9.303498 -4.587550
-11.698323 -9.245515 -4.594267
-11.765622 -9.181981 -4.598484
-11.826103 -9.112978 -4.600181
-11.886141 -9.043549 -4.601863
-11.935948 -8.966345 -4.599759
-11.982252 -8.886643 -4.596503
-12.035528 -8.812203 -4.596111
-12.090695 -8.739146 -4.596614
-12.156174 -8.673415 -4.601188
-12.224269 -8.609302 -4.606881
-12.295389 -8.547010 -4.613832
-12.352640 -8.474863 -4.615715
-12.408296 -8.401541 -4.617161
-12.465307 -8.329052 -4.619271
-12.519562 -8.254641 -4.620520
-12.562070 -8.172523 -4.617614
-12.603989 -8.090161 -4.614689
-12.657451 -8.015242 -4.616169
-12.706425 -7.937447 -4.616181
-12.754216 -7.858917 -4.615937
-12.788339 -7.772088 -4.610940
-12.805688 -7.675434 -4.600128
-12.832166 -7.584672 -4.592835
-12.855959 -7.492676 -4.584809
-12.887646 -7.405582 -4.579818
-12.916259 -7.316970 -4.573945
-12.951189 -7.232151 -4.570514
-12.981102 -7.144722 -4.565513
-13.006287 -7.054950 -4.559060
-13.049365 -6.975031 -4.559072
-13.102060 -6.900172 -4.562604
-13.157548 -6.826599 -4.567254
-13.233791 -6.763423 -4.579228
-13.295889 -6.692588 -4.586419
-13.340876 -6.612948 -4.587854
-13.389218 -6.534879 -4.590603
-13.411040 -6.443941 -4.584442
-13.427815 -6.350884 -4.576768
-13.456514 -6.263710 -4.573364
-13.458964 -6.164659 -4.561255
-13.488193 -6.078201 -4.558436
-13.518889 -5.992511 -4.556297
-13.554056 -5.908861 -4.555844
-13.590548 -5.825794 -4.556009
-13.584672 -5.724861 -4.542177
-13.579285 -5.624724 -4.528751
-13.579595 -5.527479 -4.517458
-13.588577 -5.434183 -4.509269
-13.642500 -5.358887 -4.516166
-13.676767 -5.275711 -4.516708
-13.697037 -5.187208 -4.512806
-13.733231 -5.104785 -4.514326
-13.750747 -5.015482 -4.509883
-13.769076 -4.926654 -4.505895
-13.818351 -4.848850 -4.512198
-13.851761 -4.765319 -4.513475
-13.913245 -4.691196 -4.524044
-13.977474 -4.617534 -4.535631
-14.026956 -4.538611 -4.542565
-14.053141 -4.452014 -4.542113
-14.037252 -4.352388 -4.528261
-14.025120 -4.254474 -4.515841
-14.004933 -4.154683 -4.501048
-13.980655 -4.054315 -4.485165
-13.985476 -3.962847 -4.478827
-13.980878 -3.869030 -4.469667
-13.994616 -3.780541 -4.466559
-14.000078 -3.689996 -4.460992
-13.991031 -3.595947 -4.450994
-13.973159 -3.500094 -4.438393
-13.945176 -3.402288 -4.422790
-13.901445 -3.301377 -4.402413
-13.866503 -3.203326 -4.385040
-13.830042 -3.105640 -4.367402
-13.804272 -3.011001 -4.353347
-13.827843 -2.927377 -4.355034
-13.844978 -2.842359 -4.354856
-13.914691 -2.767804 -4.371359
-14.017759 -2.698999 -4.398453
-14.067369 -2.619139 -4.408894
-14.170960 -2.548561 -4.436376
-14.267430 -2.475634 -4.461737
-14.362230 -2.401400 -4.486691
-14.458235 -2.326350 -4.512138
-14.534945 -2.247287 -4.531689
-14.612969 -2.167629 -4.551783
-14.627504 -2.078139 -4.552253
-14.656984 -1.990657 -4.557540
-14.675430 -1.901529 -4.559562
-14.663828 -1.808611 -4.552424
-14.725283 -1.724531 -4.568131
-14.757712 -1.636599 -4.574990
-14.737197 -1.542847 -4.565610
-14.792867 -1.456970 -4.580000
-14.797042 -1.365761 -4.578612
-14.794800 -1.274052 -4.575414
-14.834386 -1.185811 -4.585319
-14.883060 -1.097840 -4.598196
-14.913795 -1.008140 -4.605693
-15.076388 -0.926238 -4.654063
-15.220205 -0.841366 -4.696777
-15.223212 -0.747868 -4.696200
-15.155765 -0.651363 -4.674073
-15.108040 -0.556462 -4.658213
-15.124712 -0.464166 -4.662388
-15.204810 -0.373257 -4.686285
-15.260448 -0.280943 -4.702813
-15.259799 -0.187275 -4.702171
-15.277605 -0.093743 -4.707392
-15.543210 0.000000 -4.919402
-15.530454 0.095295 -4.915458
-15.496769 0.190184 -4.905073
-15.459817 0.284613 -4.893838
-15.505339 0.380635 -4.908895
-15.505764 0.475860 -4.909861
-15.535204 0.572195 -4.920202
-15.517513 0.666910 -4.915803
-15.554677 0.764152 -4.928969
-15.585232 0.861544 -4.940233
-15.559860 0.955941 -4.933957
-15.565358 1.052185 -4.937655
-15.530588 1.145605 -4.928762
-15.560611 1.243863 -4.940619
-15.620208 1.345132 -4.962069
-15.667411 1.446096 -4.979789
-15.713895 1.547684 -4.997488
-15.757506 1.649664 -5.014482
-15.767812 1.748617 -5.021082
-15.754566 1.845074 -5.020375
-15.791580 1.947706 -5.035883
-15.796182 2.046748 -5.041261
-15.804279 2.146478 -5.047953
-15.787878 2.242994 -5.047016
-15.778421 2.340508 -5.048488
-15.781099 2.439959 -5.054041
-15.792095 2.540970 -5.062460
-15.801429 2.642038 -5.070554
-15.802766 2.742040 -5.076286
-15.793475 2.840361 -5.078805
-15.788875 2.939658 -5.083030
-15.786786 3.039609 -5.088266
-15.759183 3.134696 -5.085473
-15.735897 3.230563 -5.084260
-15.706656 3.325125 -5.081309
-15.675433 3.419141 -5.077899
-15.667616 3.518281 -5.082265
-15.669041 3.619734 -5.089836
-15.691708 3.726537 -5.104531
-15.729344 3.837582 -5.124337
-15.760213 3.947728 -5.142188
-15.774368 4.054296 -5.154827
-15.793173 4.162601 -5.169221
-15.807450 4.270265 -5.182373
-15.840766 4.383730 -5.202016
-15.886687 4.501563 -5.226068
-15.925394 4.618279 -5.248025
-15.990176 4.743622 -5.278865
-16.040363 4.865791 -5.305190
-16.104178 4.993259 -5.336329
-16.159565 5.119327 -5.364991
-16.233556 5.252586 -5.400154
-16.263958 5.372886 -5.421132
-16.259278 5.482220 -5.430683
-16.230801 5.583763 -5.432513
-16.242287 5.699407 -5.447960
-16.354416 5.851703 -5.497510
-16.472402 6.008185 -5.549459
-16.527145 6.143312 -5.580495
-16.568590 6.274694 -5.607384
-16.655471 6.424724 -5.650024
-16.740755 6.575908 -5.692535
-16.842468 6.735441 -5.741067
-16.983621 6.913064 -5.803531
-17.076999 7.073525 -5.850161
-17.336790 7.306081 -5.954405
-16.920585 7.253264 -5.826633
-16.369028 7.136041 -5.651675
-17.248326 7.645657 -5.971353
-15.599809 8.964062 -5.694409
-16.691168 9.727903 -6.114462
-16.324084 9.648629 -6.001564
-15.708459 9.415288 -5.796360
-15.440952 9.384209 -5.718790
-10.457633 15.444952 -5.903427
-10.500238 15.714716 -5.981799
-10.264309 15.567566 -5.901701
-10.226378 15.719072 -5.935237
-10.103003 15.739877 -5.919574
-9.929875 15.680986 -5.874400
-9.817190 15.715556 -5.864674
-9.740800 15.808318 -5.876876
-9.683739 15.933803 -5.901325
-9.622925 16.054880 -5.924188
-9.550769 16.158518 -5.940693
-9.512846 16.322174 -5.979289
-9.517640 16.563179 -6.046069
-9.216365 16.269160 -5.917988
-9.179060 16.437675 -5.958686
-3.807298 8.881754 -3.058448
-7.283568 17.283368 -5.936057
-7.164467 17.296554 -5.925375
-6.953164 17.082137 -5.837195
-6.872109 17.184216 -5.857558
-6.752163 17.189461 -5.845113
-6.599806 17.109353 -5.803993
-6.428453 16.974598 -5.744792
-6.210942 16.709088 -5.641930
-5.909190 16.200990 -5.458022
-5.576687 15.585796 -5.239139
-5.172817 14.741597 -4.944601
-3.715154 10.799156 -3.614520
-1.670333 4.953909 -1.654631
-0.934718 2.829433 -0.943112
-1.364240 4.216297 -1.402567
-3.997724 12.619136 -4.189565
-4.935597 15.918208 -5.274706
-4.845463 15.973352 -5.283027
-4.700279 15.844073 -5.230632
-4.610017 15.896905 -5.238636
-4.549150 16.054628 -5.281314
-4.469856 16.151983 -5.304217
-4.368599 16.171458 -5.301710
-4.267519 16.191238 -5.299511
-4.161578 16.191776 -5.291229
-4.047716 16.159389 -5.272430
-3.902108 15.993822 -5.210499
-3.748338 15.783508 -5.134393
-3.622045 15.679048 -5.093087
-3.521330 15.681193 -5.086669
-3.425491 15.704547 -5.087331
-3.317914 15.672597 -5.070290
-3.221647 15.692466 -5.070228
-3.116267 15.666534 -5.055576
-2.980902 15.481878 -4.989991
-2.856994 15.344889 -4.940094
-2.739707 15.233805 -4.898828
-2.618503 15.090807 -4.847585
-2.618171 15.658688 -5.024749
-2.493455 15.496792 -4.967795
-2.423074 15.671894 -5.019066
-2.333633 15.732076 -5.033660
-2.239130 15.760674 -5.038319
-2.137092 15.735168 -5.025879
-2.034225 15.699536 -5.010417
-1.932075 15.664852 -4.995470
-1.826976 15.600034 -4.971131
-1.724080 15.546552 -4.950624
-1.624335 15.515564 -4.937490
-1.528610 15.520242 -4.935901
-1.434228 15.538826 -4.938919
-1.340174 15.562640 -4.943781
-1.244338 15.566555 -4.942507
-1.147616 15.557851 -4.937414
-1.051613 15.556898 -4.934971
-0.955539 15.553324 -4.931884
-0.860146 15.559949 -4.932219
-0.764804 15.567949 -4.933174
-0.665171 15.477055 -4.902986
-0.562407 15.269455 -4.836036
-0.456190 14.864821 -4.706908
-0.351998 14.338794 -4.539574
-0.250849 13.625799 -4.313275
-0.158955 12.952176 -4.099653
-0.074379 12.121674 -3.836564
0.000000 7.081855 -2.241396
0.137148 3.191120 -1.010917
0.538124 10.953760 -3.471029
0.668126 12.086326 -3.831144
0.640464 10.424841 -3.305667
0.244721 3.620244 -1.148416
0.111515 1.511772 -0.479773
0.482495 6.035968 -1.916469
1.184117 13.750441 -4.368100
1.358389 14.717169 -4.677761
1.458992 14.813393 -4.711102
1.550956 14.814657 -4.714441
1.639577 14.784562 -4.707977
1.718704 14.675531 -4.676528
1.795799 14.559951 -4.643121
1.871595 14.444406 -4.609849
1.947201 14.337025 -4.579306
2.020870 14.224397 -4.547207
2.106743 14.202509 -4.544257
2.194888 14.196036 -4.546410
2.302390 14.309326 -4.587130
2.415471 14.446388 -4.635732
2.503622 14.428727 -4.634907
2.598941 14.451088 -4.647125
2.694455 14.471891 -4.659044
2.793354 14.507814 -4.676039
2.889052 14.524243 -4.686959
2.979925 14.515052 -4.689806
3.068042 14.492295 -4.688447
3.146891 14.427274 -4.673571
3.221486 14.345929 -4.653536
3.284992 14.220016 -4.619144
3.345018 14.085207 -4.581934
3.403424 13.949834 -4.544605
3.474979 13.872895 -4.526401
3.559665 13.849867 -4.525928
3.644684 13.828161 -4.526058
3.732589 13.817108 -4.529852
3.818585 13.798594 -4.531378
3.905341 13.782529 -4.533887
3.996309 13.780632 -4.541244
4.085567 13.771952 -4.546559
4.175062 13.763336 -4.552086
4.262710 13.748025 -4.555587
4.348487 13.726350 -4.557161
4.430749 13.693600 -4.555228
4.508677 13.647960 -4.549163
4.577806 13.576951 -4.534772
4.648699 13.512773 -4.522778
4.724243 13.463244 -4.515818
4.801856 13.420288 -4.511207
4.885376 13.394042 -4.512377
4.976080 13.386980 -4.520199
5.060732 13.363072 -4.522526
5.144223 13.335898 -4.523927
5.218387 13.284817 -4.517376
5.280561 13.204433 -4.500975
5.373093 13.200306 -4.510722
5.514341 13.312796 -4.560638
5.653707 13.415829 -4.607732
5.757170 13.430460 -4.624803
6.023974 13.818108 -4.770928
