12.110842 -12.720415 0.517442
11.896676 -12.649995 0.511598
11.719788 -12.616133 0.507311
11.627461 -12.671792 0.506670
11.558372 -12.752698 0.507060
11.499904 -12.845718 0.507943
11.474344 -12.976516 0.510322
11.434281 -13.092219 0.512103
11.370679 -13.181777 0.512867
11.280739 -13.240917 0.512466
11.179760 -13.286684 0.511572
11.077863 -13.330770 0.510643
10.963767 -13.359388 0.509153
10.855498 -13.394217 0.507932
10.742568 -13.422413 0.506492
10.625285 -13.444142 0.504842
10.499764 -13.454204 0.502791
10.375330 -13.464283 0.500779
10.252381 -13.474937 0.498826
10.140844 -13.499434 0.497420
10.042024 -13.540102 0.496639
9.948457 -13.587399 0.496126
9.852158 -13.630559 0.495485
9.714313 -13.615038 0.492745
9.504364 -13.495160 0.486286
9.252227 -13.309886 0.477555
9.043165 -13.180975 0.470930
8.930768 -13.189914 0.469283
8.835495 -13.223253 0.468531
8.736583 -13.250510 0.467589
8.672026 -13.329861 0.468503
8.605643 -13.407079 0.469352
8.546814 -13.496894 0.470651
8.469130 -13.557554 0.470945
8.368772 -13.581657 0.469990
8.266093 -13.601183 0.468902
8.163119 -13.619342 0.467792
8.070453 -13.654038 0.467274
7.984786 -13.700322 0.467173
7.900829 -13.749505 0.467188
7.818798 -13.802109 0.467336
7.741944 -13.864117 0.467819
7.661321 -13.919702 0.468099
7.582437 -13.978744 0.468511
7.507903 -14.046298 0.469222
7.429612 -14.107362 0.469731
7.349649 -14.165671 0.470162
7.260395 -14.206202 0.470019
7.157602 -14.219713 0.469005
7.040951 -14.204323 0.467063
6.919219 -14.176688 0.464750
6.802237 -14.156722 0.462718
6.684564 -14.133324 0.460604
6.577154 -14.129896 0.459168
6.472058 -14.130092 0.457876
6.366592 -14.128165 0.456539
6.263232 -14.129626 0.455336
6.162908 -14.136804 0.454340
6.064687 -14.147843 0.453490
5.977174 -14.183392 0.453445
5.894028 -14.229442 0.453753
5.819200 -14.296279 0.454737
5.747569 -14.372221 0.456022
5.674150 -14.445088 0.457221
5.593311 -14.500114 0.457868
5.507708 -14.543333 0.458156
5.415169 -14.568247 0.457886
5.320293 -14.586435 0.457423
5.228446 -14.612527 0.457227
5.141367 -14.651972 0.457465
5.056488 -14.698126 0.457929
4.971658 -14.745043 0.458431
4.884087 -14.784342 0.458713
4.794236 -14.816987 0.458804
4.700180 -14.836496 0.458507
4.605700 -14.854230 0.458173
4.515315 -14.884998 0.458259
4.430383 -14.934288 0.458931
4.347493 -14.991634 0.459864
4.264503 -15.050068 0.460845
4.180666 -15.106986 0.461794
4.090619 -15.142444 0.462102
3.998415 -15.170239 0.462193
3.903131 -15.186217 0.461941
3.806384 -15.195938 0.461518
3.710108 -15.206856 0.461149
3.615747 -15.225193 0.461024
3.520958 -15.241462 0.460854
3.425121 -15.252757 0.460551
3.330241 -15.267864 0.460382
3.235802 -15.284731 0.460283
3.140744 -15.298394 0.460105
3.048510 -15.325896 0.460361
2.956565 -15.355480 0.460696
2.864368 -15.384493 0.461031
2.771923 -15.412936 0.461365
2.677057 -15.428260 0.461323
2.580143 -15.431254 0.460930
2.480068 -15.413590 0.459940
2.380316 -15.395347 0.458951
2.281099 -15.377920 0.458005
2.183993 -15.372581 0.457439
2.088892 -15.380280 0.457278
1.992173 -15.374990 0.456748
1.897202 -15.382107 0.456605
1.801117 -15.379227 0.456183
1.705787 -15.381597 0.455934
1.611660 -15.394492 0.456015
1.516692 -15.399228 0.455871
1.422219 -15.408715 0.455885
1.326259 -15.401045 0.455409
1.229746 -15.384019 0.454674
1.132402 -15.351604 0.453502
1.036602 -15.334846 0.452810
0.942596 -15.342646 0.452861
0.849712 -15.371193 0.453541
0.757701 -15.423358 0.454935
0.665130 -15.476094 0.456361
0.571958 -15.528745 0.457802
0.477430 -15.556931 0.458538
0.382472 -15.580173 0.459145
0.287355 -15.608771 0.459927
0.191789 -15.627617 0.460439
0.096020 -15.648645 0.461033
0.000000 -15.727648 0.463351
-0.097261 -15.850851 0.466990
-0.197313 -16.077668 0.473699
-0.300400 -16.317345 0.480806
-0.400970 -16.333722 0.481352
-0.486540 -15.853768 0.467287
-0.574678 -15.602605 0.459979
-0.680058 -15.823440 0.466604
-0.797647 -16.236475 0.478919
-0.867702 -15.696637 0.463144
-0.957735 -15.589066 0.460135
-1.054619 -15.601365 0.460680
-1.163726 -15.776244 0.466046
-1.278070 -15.988547 0.472540
-1.388860 -16.128000 0.476905
-1.502665 -16.280294 0.481672
-1.614064 -16.387867 0.485138
-1.725190 -16.478929 0.488138
-1.835855 -16.554456 0.490700
-1.951045 -16.659422 0.494157
-2.067797 -16.765257 0.497663
-2.187311 -16.881005 0.501488
-2.304141 -16.965130 0.504398
-2.424068 -17.062407 0.507722
-2.548415 -17.180022 0.511678
-2.674058 -17.295203 0.515587
-2.800059 -17.402329 0.519283
-2.919040 -17.458120 0.521473
-3.033382 -17.481813 0.522727
-3.136696 -17.441208 0.522078
-3.238476 -17.393826 0.521245
-3.342764 -17.361277 0.520874
-3.453108 -17.359948 0.521460
-3.581669 -17.446118 0.524699
-3.712242 -17.535255 0.528055
-3.782655 -17.342004 0.522924
-3.807168 -16.954087 0.511922
-3.901485 -16.888680 0.510660
-4.021573 -16.934050 0.512769
-4.071915 -16.689818 0.506120
-4.206556 -16.793514 0.510038
-4.372693 -17.013179 0.517515
-4.568974 -17.334978 0.528146
-4.691535 -17.366887 0.529985
-4.680043 -16.911502 0.516955
-4.747065 -16.753099 0.512994
-4.885053 -16.845324 0.516726
-4.926922 -16.608058 0.510365
-5.075040 -16.730164 0.515065
-5.279095 -17.026055 0.525162
-5.507818 -17.385870 0.537293
-5.669744 -17.522817 0.542590
-5.589375 -16.919280 0.524953
-5.467550 -16.215770 0.504157
-5.592971 -16.257570 0.506514
-5.945081 -16.942412 0.528977
-5.991649 -16.745538 0.523969
-6.074668 -16.654675 0.522282
-6.213559 -16.716127 0.525395
-6.357846 -16.788156 0.528875
-6.447950 -16.715682 0.527828
-6.498755 -16.544343 0.523667
-6.579483 -16.452483 0.522028
-6.692875 -16.442673 0.523010
-6.876938 -16.602397 0.529422
-7.087753 -16.818713 0.537697
-7.292227 -17.011479 0.545280
-7.462735 -17.118414 0.550165
-7.584524 -17.110413 0.551393
-7.673040 -17.027317 0.550222
-7.730353 -16.877258 0.546896
-7.823778 -16.808055 0.546199
-7.963869 -16.838187 0.548755
-8.119743 -16.898696 0.552341
-8.318318 -17.043282 0.558724
-8.502344 -17.152519 0.564005
-8.675432 -17.235124 0.568461
-8.811750 -17.241694 0.570450
-8.953711 -17.257331 0.572775
-9.132207 -17.340253 0.577376
-9.318670 -17.434006 0.582390
-9.483287 -17.483093 0.585963
-9.623207 -17.484213 0.587968
-9.798845 -17.547574 0.592110
-9.973691 -17.606027 0.596136
-10.132399 -17.633020 0.599144
-10.318632 -17.704744 0.603721
-10.586159 -17.910249 0.612932
-10.969133 -18.300893 0.628592
-11.410205 -18.774562 0.647254
-11.999547 -19.474033 0.673894
-12.380131 -19.818364 0.688426
-12.051827 -19.031915 0.663663
-12.549456 -19.551304 0.684447
-0.634959 -0.963022 0.033983
-31.299381 -46.226277 1.644681
-27.338612 -38.316269 1.386712
-28.483350 -39.406999 1.432485
-27.239397 -37.203014 1.358418
-26.655695 -35.941045 1.318286
-27.861697 -37.089334 1.366649
-28.964926 -38.069259 1.409279
-29.027979 -37.670218 1.401075
-28.673389 -36.741553 1.373053
-28.524476 -36.091937 1.355291
-28.393797 -35.476927 1.338714
-28.297621 -34.915439 1.324054
-28.027229 -34.151278 1.301572
-27.565091 -33.171010 1.270635
-27.242482 -32.376567 1.246583
-26.866391 -31.534783 1.220496
-26.627670 -30.868870 1.201024
-26.401143 -30.229234 1.182418
-26.335606 -29.783350 1.171276
-26.417390 -29.508972 1.166839
-26.542661 -29.285313 1.164413
-26.796211 -29.202937 1.167653
-26.920755 -28.979690 1.165310
-27.152099 -28.871418 1.167633
-27.449806 -28.831432 1.172806
-27.593198 -28.628226 1.171405
-27.853938 -28.546105 1.175016
-28.050671 -28.397034 1.175943
-28.257418 -28.257418 1.177319
-28.460208 -28.113074 1.178559
-28.673923 -27.978657 1.180278
-28.969394 -27.922031 1.185365
-29.223238 -27.822835 1.188744
-29.516881 -27.759124 1.193738
-29.795509 -27.678612 1.198115
-30.319184 -27.820465 1.212285
-30.764462 -27.883283 1.223225
-31.053788 -27.800360 1.227924
-31.550009 -27.897755 1.240753
-32.011487 -27.957700 1.252131
-30.843967 -26.606189 1.200055
-31.318576 -26.682191 1.212128
-34.044615 -28.646020 1.310807
-1.541245 -1.043563 0.054836
-38.756653 -21.642333 1.307770
-25.321771 -13.936952 0.851534
-25.549298 -13.858607 0.856310
-26.333079 -14.075324 0.879668
-26.196907 -13.796545 0.872274
-25.069024 -13.006693 0.832046
-24.782384 -12.665587 0.819938
-24.466582 -12.315442 0.806974
-24.442892 -12.116114 0.803725
-24.398977 -11.908414 0.799864
-24.346358 -11.698309 0.795771
-24.293672 -11.490051 0.791729
-24.146658 -11.239736 0.784676
-24.004162 -10.994715 0.777838
-23.852128 -10.748513 0.770760
-23.743835 -10.524918 0.765159
-23.499611 -10.244603 0.755249
-23.466075 -10.059088 0.752173
-23.456303 -9.884970 0.749902
-23.428529 -9.704414 0.747096
-23.448875 -9.544701 0.745863
-23.376482 -9.348447 0.741722
-23.393700 -9.189240 0.740465
-23.358501 -9.010368 0.737587
-23.233910 -8.798919 0.731935
-23.021394 -8.557292 0.723572
-22.837136 -8.329674 0.716161
-22.653357 -8.105501 0.708824
-22.413432 -7.864858 0.699794
-22.260115 -7.657983 0.693527
-22.130898 -7.461982 0.688062
-22.038927 -7.280678 0.683800
-21.984760 -7.113466 0.680753
-21.958821 -6.956522 0.678615
-21.942021 -6.803339 0.676793
-21.959896 -6.661462 0.676071
-21.994761 -6.524933 0.675899
-21.985041 -6.375544 0.674385
-21.937755 -6.216160 0.671752
-21.760833 -6.022034 0.665191
-21.508946 -5.810482 0.656389
-21.215077 -5.591651 0.646361
-21.117125 -5.427481 0.642350
-21.353201 -5.348699 0.648521
-21.546413 -5.256807 0.653397
-22.108739 -5.250482 0.669460
-22.170046 -5.121543 0.670352
-21.850935 -4.906791 0.659781
-19.962260 -4.354187 0.601935
-21.520443 -4.555913 0.648064
-19.885397 -3.955451 0.597320
-21.203734 -4.082596 0.636156
-20.768149 -3.866726 0.622364
-21.322175 -3.834664 0.638249
-21.557389 -3.740562 0.644591
-21.180365 -3.541409 0.632656
-20.856582 -3.355852 0.622358
-20.654124 -3.193390 0.615720
-20.983732 -3.112643 0.624965
-21.284019 -3.023835 0.633344
-21.421897 -2.909442 0.636904
-21.540529 -2.791056 0.639909
-21.606032 -2.664850 0.641358
-21.614695 -2.531375 0.641142
-21.562589 -2.391246 0.639149
-21.390196 -2.239354 0.633619
-21.226191 -2.090597 0.628370
-21.125046 -1.949834 0.625009
-21.016113 -1.809799 0.621446
-20.848994 -1.666598 0.616190
-20.610512 -1.520323 0.608855
-20.205289 -1.365834 0.596626
-19.681129 -1.209137 0.580918
-19.089100 -1.055236 0.563242
-18.807790 -0.923967 0.554764
-18.561191 -0.797721 0.547335
-18.420569 -0.678470 0.543055
-18.332090 -0.562598 0.540335
-18.108502 -0.444539 0.533654
-18.039715 -0.332108 0.531557
-17.777626 -0.218175 0.523785
-17.598955 -0.107987 0.518492
-18.002261 0.000000 0.392811
-17.938616 0.110071 0.391429
-18.170930 0.223002 0.396521
-18.494130 0.340474 0.403612
-18.552463 0.455437 0.404938
-18.489234 0.567421 0.403626
-18.452914 0.679661 0.402917
-18.098528 0.777837 0.395276
-17.765043 0.872741 0.388102
-17.695773 0.978214 0.386713
-17.736880 1.089689 0.387750
-17.887720 1.209171 0.391202
-17.979263 1.326230 0.393375
-18.090819 1.446119 0.396002
-18.134814 1.561677 0.397168
-18.140311 1.674344 0.397505
-18.192432 1.791798 0.398881
-18.190927 1.904420 0.399097
-18.141180 2.011819 0.398269
-18.088806 2.118445 0.397397
-18.026573 2.223366 0.396322
-18.048528 2.338589 0.397112
-18.059493 2.452773 0.397677
-18.036055 2.562395 0.397500
-17.987964 2.668262 0.396793
-17.874262 2.763588 0.394652
-17.743580 2.854966 0.392146
-17.662306 2.953181 0.390743
-17.599012 3.053718 0.389750
-17.598801 3.165038 0.390168
-17.635397 3.283453 0.391419
-17.645870 3.397560 0.392106
-17.668711 3.514525 0.393086
-17.647802 3.623075 0.393108
-17.595717 3.725042 0.392449
-17.595277 3.837899 0.392957
-17.604152 3.953145 0.393690
-17.683832 4.085174 0.396025
-17.760975 4.217955 0.398325
-17.796272 4.341863 0.399706
-17.809219 4.460977 0.400604
-17.762692 4.565331 0.400180
-17.690982 4.662806 0.399202
-17.637227 4.764565 0.398641
-17.598772 4.870236 0.398440
-17.588154 4.983681 0.398884
-17.615128 5.108292 0.400199
-17.622960 5.228001 0.401098
-17.588979 5.335558 0.401063
-17.495889 5.424772 0.399691
-17.353926 5.497698 0.397211
-17.234643 5.576501 0.395257
-17.144867 5.663899 0.393988
-17.118191 5.771824 0.394181
-17.108510 5.885714 0.394782
-17.134769 6.012579 0.396232
-17.147465 6.135461 0.397389
-17.125696 6.246469 0.397765
-17.072366 6.345976 0.397423
-16.987194 6.433223 0.396352
-16.945641 6.536655 0.396311
-16.926074 6.648703 0.396800
-16.923608 6.767889 0.397708
-16.990102 6.915702 0.400260
-17.054101 7.064040 0.402782
-17.030772 7.177119 0.403263
-16.858668 7.226723 0.400231
-16.411478 7.154547 0.390649
-16.084666 7.129842 0.383904
-15.988124 7.204747 0.382648
-16.116067 7.381702 0.386786
-16.532064 7.695311 0.397896
-16.855774 7.972187 0.406857
-17.257209 8.292006 0.417767
-16.468113 8.037595 0.399851
-14.790463 7.331495 0.360202
-14.508571 7.303001 0.354422
-16.739757 8.815957 0.412821
-16.037466 8.572204 0.396791
-15.765234 8.551476 0.391347
-15.781162 8.685858 0.393058
-15.853200 8.852680 0.396198
-15.903262 9.009087 0.398823
-16.016514 9.203512 0.403071
-16.069256 9.365441 0.405837
-16.018475 9.467994 0.406014
-15.626634 9.366244 0.397532
-13.270123 8.064892 0.338836
-5.484959 3.379733 0.140578
-21.364497 13.345969 0.549657
-22.335266 14.143651 0.576854
-21.702632 13.930335 0.562712
-21.602828 14.054182 0.562350
-21.471342 14.156901 0.561178
-21.234999 14.188772 0.557265
-21.361980 14.463997 0.562916
-21.270408 14.593139 0.562852
-21.142506 14.696990 0.561844
-20.957594 14.760003 0.559326
-20.697721 14.767799 0.554798
-20.441569 14.775150 0.550352
-20.242414 14.821142 0.547428
-20.165854 14.956017 0.547829
-20.170761 15.152379 0.550478
-20.078261 15.276508 0.550501
-19.939272 15.364838 0.549265
-19.703712 15.376928 0.545365
-19.471513 15.388886 0.541541
-19.293252 15.441267 0.539209
-19.281509 15.626922 0.541550
-19.325203 15.859784 0.545500
-19.355855 16.084705 0.549141
-19.346232 16.278420 0.551692
-19.238092 16.390095 0.551465
-19.020138 16.406884 0.548093
-18.692954 16.325764 0.541541
-18.321555 16.200637 0.533651
-18.134241 16.234362 0.531087
-18.150014 16.450214 0.534495
-18.273067 16.767114 0.541138
-18.373033 17.067674 0.547190
-18.380353 17.285786 0.550556
-18.293761 17.417109 0.551153
-18.112438 17.457599 0.548908
-17.842984 17.410339 0.543969
-17.502565 17.289083 0.536815
-17.243322 17.243322 0.532099
-17.138400 17.350021 0.532136
-17.045860 17.469448 0.532581
-16.968592 17.605088 0.533532
-16.821774 17.668462 0.532314
-16.486237 17.530175 0.525091
-15.859139 17.072067 0.508444
-15.138966 16.498685 0.488592
-13.367708 14.748993 0.434339
-16.921287 18.901557 0.553559
-16.370571 18.513736 0.539249
-15.739869 18.022105 0.522107
-15.377440 17.826726 0.513703
-15.271986 17.925696 0.513845
-14.522432 17.259313 0.492179
-11.548935 13.897644 0.394287
-8.114477 9.887518 0.279099
-15.791959 19.485142 0.547269
-16.038440 20.039396 0.560062
-15.346598 19.418007 0.540053
-14.737572 18.884453 0.522689
-14.514349 18.835575 0.518862
-13.368445 17.570451 0.481743
-11.392831 15.166073 0.413896
-12.077443 16.284546 0.442389
-13.340747 18.220520 0.492749
-14.279534 19.755879 0.531891
-14.728347 20.642427 0.553316
-14.509911 20.602491 0.549849
-14.235569 20.478724 0.544204
-13.919250 20.288173 0.536861
-13.553995 20.017992 0.527500
-13.997274 20.948401 0.549744
-14.932940 22.648336 0.591940
-14.627756 22.484476 0.585300
-14.175358 22.084364 0.572610
-13.840977 21.857291 0.564509
-13.792579 22.079440 0.568050
-14.088436 22.864086 0.586002
-14.240188 23.431069 0.598283
-14.261056 23.793135 0.605282
-14.020838 23.721229 0.601253
-13.812063 23.698784 0.598525
-13.757773 23.942117 0.602527
-13.816562 24.389642 0.611644
-13.852110 24.806079 0.619945
-13.837732 25.141499 0.626194
-13.917446 25.657771 0.636913
-14.109242 26.396536 0.653091
-14.297237 27.147622 0.669490
-14.393883 27.742686 0.681974
-14.383262 28.143307 0.689640
-14.356385 28.521239 0.696729
-14.310418 28.869652 0.703082
-14.300802 29.300707 0.711430
-14.271505 29.701659 0.719025
-14.212832 30.050508 0.725345
-14.100314 30.292122 0.729075
-14.041265 30.655529 0.735734
-14.018714 31.109064 0.744541
-13.727321 30.968340 0.739143
-13.216178 30.315966 0.721623
-13.392848 31.243149 0.741723
-13.504230 32.044538 0.758767
-11.154594 26.929572 0.636019
-10.437068 25.641190 0.604067
-9.883781 24.715124 0.580810
-10.083271 25.669699 0.601778
-10.045188 26.041170 0.609030
-9.849425 26.007816 0.606825
-10.309197 27.734484 0.645624
-10.532926 28.877702 0.670720
-10.728130 29.983114 0.694852
-11.079542 31.574702 0.730148
-11.313774 32.886717 0.758868
-11.441592 33.933705 0.781392
-11.557453 34.984910 0.803950
-11.494027 35.523249 0.814685
-11.350493 35.828744 0.820079
-11.110355 35.832940 0.818599
-10.682054 35.214012 0.802947
-11.906737 40.136173 0.913499
-9.314305 32.871569 0.745499
-9.755791 35.252899 0.798133
-8.971060 33.208615 0.750589
-8.971055 34.036752 0.768048
-8.955225 34.842792 0.784982
-8.880227 35.451853 0.797461
-8.901068 36.483379 0.819420
-8.776042 36.954174 0.828769
-8.826334 38.207285 0.855642
-8.887301 39.576947 0.885078
-8.736635 40.054084 0.894532
-8.584717 40.551019 0.904437
-8.445510 41.137620 0.916347
-8.156242 41.004199 0.912243
-7.958385 41.333379 0.918463
-7.752110 41.636508 0.924124
-7.520081 41.814482 0.927033
-7.301314 42.078509 0.931876
-7.049054 42.158801 0.932678
-6.788378 42.189685 0.932423
-6.505091 42.073455 0.928954
-6.224370 41.961296 0.925617
-5.952651 41.899223 0.923425
-5.634402 41.485466 0.913527
-5.328869 41.126611 0.904888
-5.032301 40.800818 0.897023
-4.716126 40.269671 0.884693
-4.453806 40.161315 0.881695
-4.198061 40.099668 0.879760
-3.974006 40.348765 0.884673
-3.739013 40.509511 0.887678
-3.481640 40.430196 0.885455
-3.263364 40.824399 0.893633
-3.017342 40.905110 0.894978
-2.664495 39.416870 0.862042
-2.443319 39.769921 0.869419
-2.420888 43.793586 0.957038
-1.385289 37.610836 0.821228
-1.192878 38.869576 0.848536
-0.917441 37.372413 0.815715
-0.692863 37.635454 0.821348
-0.465012 37.890688 0.826840
-0.234590 38.231681 0.834234
0.000000 38.092633 0.831184
0.233066 37.983350 0.828815
0.466653 38.024382 0.829757
0.701250 38.091041 0.831290
0.934949 38.085590 0.831281
1.168837 38.086219 0.831436
1.401162 38.041796 0.830638
1.632572 37.986325 0.829630
1.868507 38.034338 0.830913
2.105672 38.091367 0.832426
2.342576 38.130132 0.833571
2.578658 38.147045 0.834271
2.814877 38.160354 0.834924
3.046858 38.115931 0.834346
3.270247 37.975413 0.831693
3.476053 37.660535 0.825249
3.668353 37.245417 0.816630
3.864207 36.910713 0.809796
4.084576 36.831853 0.808601
4.302243 36.735635 0.807053
4.440842 36.005397 0.791594
4.583387 35.373204 0.778298
4.790667 35.273145 0.776729
5.152028 36.263837 0.799225
3.737305 25.194865 0.555769
3.881004 25.101454 0.554224
4.012354 24.936731 0.551120
4.117035 24.623059 0.544736
4.202615 24.220267 0.536385
4.212870 23.425145 0.519339
4.151814 22.299352 0.494935
3.987411 20.709375 0.460180
3.778378 18.995187 0.422597
0.689183 3.356972 0.074777
4.828206 21.500977 0.480836
5.035086 21.795793 0.488111
5.059925 21.306344 0.477836
5.319007 21.801357 0.489661
5.570498 22.238674 0.500241
5.730122 22.294633 0.502281
5.921163 22.465269 0.506935
6.196584 22.938199 0.518455
6.500700 23.490513 0.531830
6.387574 22.542699 0.511249
5.867886 20.234466 0.459708
6.849756 23.089700 0.525521
6.446073 20.789772 0.474940
6.978663 22.028711 0.504212
6.732597 20.807654 0.477200
7.323180 22.167581 0.509409
7.557552 22.414341 0.516136
7.211216 20.961461 0.483690
6.738673 19.204008 0.444082
7.709104 21.545504 0.499312
7.209015 19.394168 0.451472
7.498088 19.799014 0.461959
7.025722 18.213498 0.425963
7.152590 18.208856 0.426872
7.427866 18.573927 0.436491
7.510472 18.451299 0.434684
7.656836 18.485237 0.436582
7.881850 18.703047 0.442860
8.114851 18.930514 0.449417
8.267899 18.965342 0.451440
8.185968 18.467247 0.440771
7.984342 17.718131 0.424052
8.074155 17.627864 0.423070
8.053950 17.302539 0.416440
8.125320 17.179546 0.414672
8.476746 17.641686 0.427074
8.913144 18.262013 0.443407
9.060482 18.278499 0.445149
8.726052 17.335688 0.423484
8.626342 16.878911 0.413611
7.501820 14.458963 0.355432
8.755001 16.624014 0.409967
8.819561 16.500238 0.408241
8.942848 16.486756 0.409257
9.276727 16.854701 0.419796
9.495633 17.004588 0.424973
9.545435 16.850050 0.422566
9.668609 16.825905 0.423441
9.796048 16.808093 0.424497
9.884754 16.723572 0.423886
9.934954 16.575469 0.421670
9.970786 16.406116 0.418910
9.988206 16.209833 0.415455
10.004679 16.015692 0.412045
10.024126 15.829825 0.408838
10.067217 15.684124 0.406662
10.131686 15.573520 0.405399
10.204422 15.476737 0.404502
10.292341 15.403577 0.404233
10.375239 15.323264 0.403788
10.445523 15.225000 0.402880
10.504323 15.111102 0.401564
10.547141 14.975790 0.399681
10.596996 14.852156 0.398109
10.656781 14.743764 0.396949
10.736092 14.663135 0.396544
10.827679 14.599436 0.396611
10.944548 14.569321 0.397610
11.079612 14.562185 0.399263
11.255918 14.607040 0.402379
11.449242 14.670847 0.406064
11.649838 14.740506 0.409963
11.833530 14.785528 0.413227
11.901618 14.684988 0.412450
11.864965 14.457502 0.408098
11.907263 14.328846 0.406521
12.067088 14.341237 0.408965
12.313181 14.452760 0.414292
12.599630 14.606472 0.420907
12.644890 14.478363 0.419443
12.622873 14.275406 0.415799
12.951404 14.467085 0.423689
13.814110 15.241521 0.448844
13.743339 14.977709 0.443550
13.940550 15.006742 0.446934
14.460364 15.376020 0.460566
15.096300 15.856140 0.477713
15.566400 16.150300 0.489444
16.079942 16.479527 0.502402
15.324678 15.513904 0.475821
14.625877 14.625877 0.451329
2.996545 2.959995 0.091906
16.510202 16.109874 0.503337
16.867071 16.257257 0.511166
16.505554 15.714594 0.497278
17.094263 16.076284 0.512033
17.843935 16.576168 0.531432
17.962232 16.481896 0.531933
18.158850 16.458223 0.534755
18.166516 16.263255 0.532032
18.050265 15.960752 0.525750
17.800947 15.546718 0.515700
17.687125 15.257019 0.509680
18.075812 15.399879 0.518148
18.574442 15.629016 0.529683
18.935342 15.735258 0.537211
19.175505 15.736931 0.541275
19.340515 15.674744 0.543207
19.494683 15.602481 0.544838
19.641188 15.522985 0.546260
19.764123 15.424073 0.547037
19.862962 15.306035 0.547163
19.903339 15.143419 0.545705
19.946814 14.984149 0.544366
20.034436 14.858550 0.544259
20.178939 14.774667 0.545712
20.352828 14.711009 0.547963
20.513876 14.636626 0.549870
20.637504 14.534570 0.550783
20.737282 14.415303 0.551075
20.831074 14.291722 0.551227
20.945174 14.181782 0.551933
21.020531 14.045470 0.551637
21.086234 13.902984 0.551112
21.264876 13.834319 0.553552
21.333280 13.693258 0.553135
21.551117 13.647094 0.556602
22.461298 14.031119 0.577875
23.818093 14.676279 0.610453
25.953476 15.773176 0.662690
32.514121 19.488214 0.827139
1.237795 0.486216 0.029018
52.095856 19.364573 1.212726
51.552118 18.445643 1.194709
49.818108 17.481140 1.152016
49.443879 17.009812 1.140927
47.815397 16.122149 1.101046
44.918105 14.838938 1.032214
49.194115 15.917420 1.128211
42.959342 12.457978 0.975996
42.592662 12.068819 0.965965
40.000487 11.069626 0.905619
40.773640 11.014695 0.921576
41.026796 10.813419 0.925780
41.323262 10.620822 0.930982
41.486244 10.391763 0.933200
41.579756 10.144461 0.933886
40.955105 9.726200 0.918498
39.950188 9.228965 0.894674
39.849066 8.948407 0.891163
42.426185 9.254040 0.947509
22.365118 4.734732 0.498824
24.206973 4.969666 0.539214
23.470504 4.668573 0.522161
23.248654 4.476328 0.516605
22.528700 4.194515 0.500026
21.971971 3.951526 0.487122
21.349228 3.704442 0.472803
20.823239 3.481696 0.460672
20.379339 3.279063 0.450398
20.045724 3.099324 0.442596
19.847842 2.944149 0.437820
19.695776 2.798192 0.434079
19.573381 2.658384 0.431014
19.413306 2.515427 0.427141
19.253158 2.374651 0.423289
19.090475 2.235754 0.419403
18.935100 2.099863 0.415698
18.794811 1.967641 0.412346
18.676861 1.839510 0.409502
18.575599 1.714521 0.407044
18.489281 1.592202 0.404931
18.397033 1.470597 0.402705
18.282227 1.348578 0.400003
18.135220 1.225902 0.396615
17.938933 1.102103 0.392167
17.771428 0.982396 0.388366
17.701421 0.869615 0.386712
17.780673 0.764176 0.388334
17.956712 0.661385 0.392083
18.040662 0.553654 0.393834
17.801361 0.436999 0.388544
17.247942 0.317532 0.376415
17.206736 0.211169 0.375481
17.304740 0.106182 0.377598
17.016299 -0.000000 0.371297
16.951098 -0.104012 0.369881
17.190305 -0.210967 0.375122
17.379581 -0.319955 0.379288
17.423689 -0.427728 0.380301
17.232587 -0.528855 0.376193
16.982568 -0.625505 0.370812
16.903194 -0.726464 0.369169
16.879540 -0.829239 0.368757
16.891434 -0.933750 0.369135
16.946825 -1.041151 0.370478
17.012453 -1.150005 0.372060
17.058583 -1.258317 0.373231
17.085132 -1.365728 0.373988
17.089097 -1.471625 0.374265
17.116143 -1.579813 0.375063
17.178841 -1.691968 0.376657
17.240174 -1.804885 0.378238
17.268019 -1.914987 0.379099
17.224358 -2.017207 0.378405
17.123176 -2.111942 0.376460
17.003807 -2.203222 0.374126
16.897337 -2.294933 0.372086
16.842958 -2.392890 0.371205
16.840672 -2.498078 0.371486
16.858204 -2.606493 0.372218
16.902109 -2.719572 0.373549
16.878365 -2.822104 0.373400
16.809524 -2.916729 0.372266
16.735562 -3.009789 0.371030
16.671484 -3.103987 0.370024
16.628864 -3.201744 0.369508
16.607735 -3.303484 0.369482
16.615705 -3.411187 0.370118
16.640733 -3.522870 0.371150
16.632878 -3.627979 0.371464
16.577106 -3.722514 0.370721
16.483148 -3.807802 0.369136
16.378158 -3.889558 0.367312
16.294251 -3.975406 0.365971
16.218477 -4.062517 0.364822
16.179794 -4.158498 0.364519
16.177889 -4.264001 0.365058
16.178158 -4.370409 0.365663
16.157321 -4.471333 0.365805
16.085615 -4.557930 0.364808
15.996228 -4.638820 0.363419
15.919510 -4.722658 0.362328
15.849111 -4.807775 0.361390
15.798624 -4.898518 0.360918
15.744259 -4.987758 0.360368
15.642897 -5.061471 0.358752
15.549155 -5.136747 0.357318
15.514986 -5.231263 0.357264
15.568464 -5.355904 0.359245
15.609759 -5.477454 0.360967
15.630791 -5.592786 0.362240
15.646016 -5.706767 0.363398
15.681590 -5.829011 0.365048
15.692731 -5.942997 0.366149
15.676846 -6.047227 0.366637
15.646597 -6.146113 0.366805
15.597374 -6.237518 0.366541
15.534438 -6.323185 0.365967
15.460549 -6.403969 0.365145
15.390612 -6.485922 0.364427
15.334655 -6.573431 0.364050
15.267625 -6.655887 0.363421
15.180832 -6.729200 0.362331
15.075267 -6.793385 0.360800
14.972589 -6.857950 0.359343
14.925960 -6.947704 0.359240
14.902557 -7.048384 0.359711
14.913214 -7.165728 0.361023
14.908814 -7.276548 0.361990
14.821245 -7.346754 0.360952
14.668422 -7.383463 0.358327
14.552454 -7.437354 0.356602
14.551413 -7.549786 0.357705
14.552313 -7.663945 0.358876
14.502031 -7.751497 0.358802
14.502149 -7.866345 0.359993
14.542190 -8.003935 0.362199
14.502301 -8.098316 0.362436
14.364081 -8.137151 0.360223
14.213572 -8.167494 0.357699
14.152510 -8.248329 0.357429
14.151275 -8.364353 0.358687
14.150502 -8.481484 0.359980
14.187044 -8.622149 0.362249
14.245890 -8.778060 0.365120
14.295109 -8.929866 0.367778
14.324552 -9.070922 0.369961
14.328356 -9.196986 0.371510
14.310319 -9.309884 0.372516
14.276302 -9.412928 0.373127
14.203888 -9.490734 0.372750
14.113946 -9.556421 0.371921
13.998115 -9.603786 0.370415
13.854658 -9.630919 0.368175
13.700198 -9.648768 0.365637
13.563982 -9.677885 0.363580
13.474647 -9.739465 0.362780
13.435721 -9.837401 0.363351
13.381436 -9.924349 0.363522
13.367818 -10.041973 0.364820
13.319848 -10.134382 0.365201
13.282300 -10.235097 0.365886
13.382388 -10.443718 0.370402
13.459943 -10.637773 0.374348
13.353785 -10.687641 0.373212
13.293079 -10.773529 0.373356
13.371404 -10.973628 0.377440
13.478808 -11.200882 0.382405
13.542441 -11.394961 0.386186
13.560089 -11.552661 0.388704
13.532273 -11.673019 0.389952
13.489646 -11.781379 0.390800
13.431701 -11.876836 0.391225
13.360481 -11.960736 0.391281
13.300205 -12.054603 0.391674
13.243276 -12.151847 0.392186
13.186636 -12.249759 0.392727
13.118832 -12.337593 0.392955
13.016898 -12.393117 0.392172
12.873953 -12.408506 0.390152
12.689562 -12.381874 0.386859
12.517326 -12.364651 0.383914
12.382404 -12.382404 0.382099
12.286992 -12.438709 0.381503
12.215829 -12.519391 0.381672
12.138004 -12.593304 0.381647
12.066690 -12.674041 0.381843
11.995768 -12.755361 0.382068
11.931927 -12.844496 0.382538
11.879390 -12.946348 0.383393
11.830075 -13.052477 0.384379
11.775332 -13.153379 0.385215
11.710254 -13.243310 0.385738
11.622453 -13.307676 0.385528
11.523217 -13.358611 0.384948
11.411750 -13.394693 0.383963
11.292508 -13.420680 0.382714
11.172962 -13.445210 0.381451
11.052192 -13.467135 0.380142
10.934531 -13.491733 0.378936
10.813864 -13.511495 0.377620
10.695084 -13.532459 0.376365
10.576785 -13.552897 0.375121
10.459165 -13.573078 0.373896
10.344169 -13.595577 0.372760
10.229217 -13.617076 0.371622
10.113721 -13.636774 0.370459
9.996541 -13.653072 0.369228
9.875612 -13.663007 0.367851
9.750454 -13.665691 0.366306
9.618225 -13.656830 0.364480
9.478390 -13.635235 0.362344
9.344463 -13.620136 0.360413
9.210993 -13.603780 0.358478
9.083940 -13.595076 0.356773
8.962205 -13.592704 0.355261
8.848881 -13.601707 0.354070
8.734965 -13.608556 0.352847
8.630105 -13.628425 0.351982
8.525770 -13.648225 0.351136
8.420176 -13.665081 0.350234
8.317410 -13.685621 0.349445
8.216482 -13.708372 0.348732
8.116630 -13.732164 0.348064
8.016729 -13.755130 0.347393
7.917306 -13.778180 0.346742
7.820899 -13.805817 0.346223
7.723566 -13.831205 0.345665
7.624728 -13.853217 0.345039
7.519511 -13.862737 0.344120
7.405587 -13.854880 0.342791
7.278371 -13.820186 0.340821
7.138024 -13.757786 0.338196
7.017102 -13.730158 0.336452
6.924201 -13.756025 0.336038
6.864705 -13.848767 0.337268
6.819071 -13.971496 0.339232
6.769024 -14.087599 0.341036
6.711997 -14.191325 0.342544
6.650632 -14.287749 0.343880
6.587438 -14.381995 0.345169
6.519585 -14.467674 0.346258
6.440765 -14.530133 0.346801
6.352797 -14.572380 0.346872
6.261182 -14.606231 0.346757
6.167278 -14.634493 0.346523
6.071807 -14.658638 0.346206
5.979192 -14.689338 0.346058
5.890209 -14.728904 0.346132
5.803472 -14.774311 0.346356
5.714957 -14.815470 0.346492
5.627797 -14.860431 0.346730
5.536538 -14.894762 0.346731
5.449163 -14.939753 0.346994
5.359024 -14.977469 0.347100
5.268861 -15.015307 0.347221
5.179509 -15.055722 0.347414
5.090748 -15.098242 0.347668
5.001099 -15.138542 0.347882
4.913911 -15.186852 0.348293
4.824567 -15.229132 0.348577
4.735174 -15.271808 0.348883
4.643402 -15.307245 0.349035
4.551482 -15.342496 0.349195
4.459136 -15.376616 0.349342
4.366314 -15.409374 0.349471
4.270834 -15.432812 0.349402
4.173455 -15.449084 0.349184
4.076572 -15.466773 0.349012
3.978847 -15.480813 0.348771
3.880534 -15.491961 0.348479
3.780347 -15.494751 0.348014
3.681728 -15.503028 0.347686
3.582391 -15.507392 0.347284
3.484238 -15.516018 0.346992
3.385685 -15.522053 0.346656
3.286819 -15.525714 0.346281
3.187592 -15.526587 0.345857
3.089278 -15.530851 0.345524
2.991303 -15.535897 0.345221
2.892569 -15.535959 0.344821
2.795557 -15.544350 0.344620
2.700024 -15.560619 0.344607
2.605046 -15.580191 0.344680
2.510960 -15.605584 0.344895
2.415705 -15.624230 0.344973
2.321692 -15.651579 0.345256
2.226511 -15.671856 0.345395
2.132368 -15.700388 0.345729
2.037337 -15.723554 0.345957
1.942895 -15.752579 0.346327
1.848215 -15.781385 0.346705
1.753037 -15.807669 0.347039
1.658842 -15.845177 0.347633
1.562844 -15.867826 0.347912
1.466400 -15.887391 0.348138
1.370316 -15.912651 0.348500
1.273840 -15.935630 0.348826
1.177508 -15.963089 0.349262
1.080432 -15.983238 0.349551
0.982604 -15.993851 0.349645
0.884069 -15.992708 0.349495
0.785436 -15.987925 0.349278
0.686951 -15.983817 0.349090
0.588714 -15.983685 0.349002
0.490396 -15.979403 0.348836
0.392040 -15.969954 0.348571
0.293814 -15.959620 0.348299
0.195693 -15.945716 0.347963
0.097866 -15.949530 0.348027
0.000000 -15.950240 0.348035
-0.097749 -15.930488 0.347611
-0.194524 -15.850470 0.345885
-0.289159 -15.706766 0.342781
-0.383774 -15.633208 0.341221
-0.482480 -15.721457 0.343205
-0.585014 -15.883220 0.346808
-0.683136 -15.895062 0.347152
-0.780275 -15.882858 0.346983
-0.878616 -15.894065 0.347339
-0.982326 -15.989321 0.349546
-1.086107 -16.067181 0.351387
-1.193730 -16.183007 0.354074
-1.308471 -16.368855 0.358309
-1.425517 -16.553672 0.362539
-1.530634 -16.583314 0.363387
-1.597614 -16.220846 0.355653
-1.675279 -16.002184 0.351077
-1.685719 -15.200634 0.333712
-1.863503 -15.911924 0.349572
-2.066114 -16.751607 0.368291
-2.177843 -16.807936 0.369816
-2.300215 -16.936223 0.372943
-2.436218 -17.147930 0.377926
-2.581167 -17.400814 0.383842
-2.701197 -17.470733 0.385742
-2.827984 -17.575886 0.388440
-2.950371 -17.645500 0.390371
-3.060114 -17.635872 0.390566
-3.158538 -17.562658 0.389367
-3.255407 -17.484761 0.388075
-3.350628 -17.402121 0.386690
-3.445964 -17.324033 0.385417
-3.548544 -17.284765 0.385021
-3.664259 -17.308603 0.386046
-3.780296 -17.331190 0.387059
-3.896399 -17.351455 0.388039
-4.007687 -17.348408 0.388513
-4.116124 -17.332181 0.388708
-4.228565 -17.331890 0.389276
-4.357754 -17.397129 0.391335
-4.490761 -17.472556 0.393644
-4.623622 -17.542314 0.395847
-4.740156 -17.546868 0.396599
-4.838119 -17.482714 0.395812
-4.931233 -17.403058 0.394686
-5.011026 -17.279722 0.392579
-5.099243 -17.188933 0.391220
-5.229923 -17.240744 0.393122
-5.371800 -17.325044 0.395788
-5.514329 -17.406424 0.398413
-5.645806 -17.448834 0.400169
-5.751143 -17.408957 0.400056
-5.849568 -17.348767 0.399490
-5.933712 -17.248030 0.398002
-6.019824 -17.155415 0.396709
-6.128530 -17.128095 0.396940
-6.260672 -17.164633 0.398669
-6.413183 -17.253170 0.401632
-6.538703 -17.265716 0.402851
-6.577549 -17.051653 0.398790
-6.572241 -16.731420 0.392237
-6.622278 -16.559497 0.389151
-6.753401 -16.591369 0.390867
-6.897398 -16.651791 0.393280
-7.091227 -16.826956 0.398437
-7.265938 -16.950151 0.402402
-7.320575 -16.792322 0.399714
-7.233893 -16.319402 0.389506
-7.252257 -16.093554 0.385171
-4.527479 -9.884599 0.237231
-3.496902 -7.512499 0.180812
-8.083947 -17.092069 0.412560
-8.199411 -17.064500 0.413102
-8.196286 -16.793252 0.407745
-8.423902 -16.994271 0.413873
-8.650842 -17.186271 0.419834
-8.765154 -17.150520 0.420266
-8.877971 -17.111350 0.420634
-9.049144 -17.182533 0.423740
-9.273741 -17.349950 0.429264
-9.466321 -17.451815 0.433214
-9.649227 -17.531489 0.436653
-9.806674 -17.561594 0.438893
-9.975747 -17.609656 0.441616
-10.158714 -17.678815 0.444905
-10.365005 -17.784311 0.449152
-10.675180 -18.060860 0.457782
-11.004432 -18.359786 0.467061
-11.290999 -18.578420 0.474377
-11.639014 -18.888924 0.484120
-11.999651 -19.209284 0.494208
-12.378329 -19.547517 0.504855
-0.594391 -0.901494 0.023562
-30.510153 -45.060660 1.187408
-22.710670 -33.102213 0.875943
-27.451675 -38.474730 1.031307
-28.327975 -39.192037 1.055174
-27.232695 -37.193860 1.005857
-27.521379 -37.108284 1.008090
-28.383320 -37.783715 1.031151
-29.354498 -38.581283 1.057813
-28.967381 -37.591579 1.035531
-28.608955 -36.658988 1.014658
-28.563274 -36.141028 1.005154
-28.527076 -35.643453 0.996165
-28.300885 -34.919467 0.980766
-27.995276 -34.112343 0.962903
-27.529577 -33.128274 0.939876
-27.189673 -32.313807 0.921484
-26.771169 -31.423015 0.900749
-26.474402 -30.691190 0.884411
-26.240026 -30.044756 0.870407
-26.159457 -29.584140 0.861697
-26.251255 -29.323395 0.858777
-26.357467 -29.080983 0.856398
-26.631709 -29.023660 0.859506
-26.738372 -28.783359 0.857233
-26.830315 -28.529259 0.854552
-27.140763 -28.506835 0.858852
-27.386606 -28.413884 0.861099
-27.620474 -28.306840 0.862974
-27.757007 -28.099744 0.861837
-27.932059 -27.932059 0.861934
-28.136622 -27.793435 0.862968
-28.401414 -27.712755 0.865858
-28.690554 -27.653273 0.869483
-28.951723 -27.564331 0.872256
-29.317159 -27.571295 0.878152
-29.626014 -27.521159 0.882329
-30.272002 -27.777171 0.896475
-30.705916 -27.830220 0.904251
-31.036921 -27.785259 0.908960
-31.580377 -27.924608 0.919841
-30.747331 -26.853631 0.890761
-30.525541 -26.331512 0.879638
-33.909351 -28.889429 0.972021
-1.884420 -1.275923 0.049657
-42.005130 -24.137257 1.057101
-45.625134 -25.846319 1.144189
-45.805754 -25.578663 1.144761
-24.760782 -13.628187 0.616711
-26.269789 -14.249421 0.652106
-25.871565 -13.828640 0.640102
-25.990284 -13.687727 0.640949
-25.272391 -13.112207 0.621249
-24.784159 -12.666495 0.607326
-24.471308 -12.317821 0.597796
-24.440365 -12.114862 0.595213
-24.373784 -11.896118 0.591803
-24.385656 -11.717191 0.590334
-24.387510 -11.534433 0.588655
-24.276867 -11.300345 0.584299
-24.186999 -11.078460 0.580489
-24.056081 -10.840420 0.575740
-23.951614 -10.617020 0.571670
-23.738195 -10.348614 0.565050
-23.663360 -10.143657 0.561776
-23.562047 -9.929533 0.557914
-23.437082 -9.707957 0.553534
-23.341197 -9.500871 0.549882
-23.210611 -9.282114 0.545454
-23.180800 -9.105611 0.543430
-23.169233 -8.937359 0.541863
-23.112354 -8.752884 0.539267
-22.991310 -8.546110 0.535209
-22.861537 -8.338574 0.530987
-22.673218 -8.112607 0.525447
-22.415153 -7.865462 0.518338
-22.208779 -7.640322 0.512472
-22.089495 -7.448022 0.508655
-22.032674 -7.278612 0.506309
-22.017371 -7.124017 0.504943
-22.016448 -6.974778 0.503931
-22.010498 -6.824571 0.502827
-22.024357 -6.681016 0.502198
-22.016945 -6.531514 0.501105
-21.969962 -6.371171 0.499137
-21.922410 -6.211812 0.497181
-21.815844 -6.037257 0.493915
-21.700477 -5.862222 0.490479
-21.639585 -5.703538 0.488303
-21.626702 -5.558452 0.487233
-21.680901 -5.430783 0.487695
-21.721454 -5.299513 0.487866
-21.730173 -5.160578 0.487342
-21.758582 -5.026490 0.487278
-21.723978 -4.878282 0.485823
-21.679383 -4.728728 0.484168
-21.598025 -4.572337 0.481715
-21.516614 -4.417338 0.479286
-21.532557 -4.283092 0.479047
-21.827221 -4.202643 0.485020
-22.320738 -4.155796 0.495410
-21.982751 -3.953465 0.487361
-20.880271 -3.623071 0.462417
-20.659630 -3.454341 0.457053
-20.814033 -3.349006 0.460005
-19.552655 -3.023089 0.431710
-20.435030 -3.031250 0.450773
-21.032382 -2.988085 0.463537
-21.335357 -2.897689 0.469813
-21.669241 -2.807733 0.476777
-21.817145 -2.690888 0.479659
-22.277905 -2.609046 0.489428
-22.467371 -2.491585 0.493245
-21.813895 -2.283711 0.478582
-20.282383 -1.997640 0.444705
-21.628524 -1.996305 0.473942
-5.592883 -0.481630 0.122489
-19.482683 -1.557380 0.426470
-20.057184 -1.479507 0.438838
-19.661265 -1.329059 0.429989
-19.832231 -1.218420 0.433557
-19.768989 -1.092820 0.432019
-19.579602 -0.961884 0.427744
-19.681324 -0.845862 0.429844
-19.616641 -0.722524 0.428327
-19.526751 -0.599261 0.426276
-18.100579 -0.444344 0.395075
-18.280129 -0.336534 0.398941
-17.839538 -0.109463 0.389267
-18.672141 0.000000 0.264804
-18.697545 0.114728 0.265169
-18.704447 0.229550 0.265282
-18.683066 0.343952 0.265003
-18.671944 0.458370 0.264881
-18.674350 0.573102 0.264960
-18.655547 0.687124 0.264748
-18.599828 0.799381 0.264022
-18.557632 0.911678 0.263497
-18.467717 1.020886 0.262304
-18.355575 1.127700 0.260805
-18.333969 1.239337 0.260601
-18.308905 1.350546 0.260358
-18.371418 1.468549 0.261370
-18.423601 1.586546 0.262246
-18.392563 1.697627 0.261947
-18.386636 1.810926 0.262016
-18.320143 1.917948 0.261232
-18.227020 2.021338 0.260076
-18.192915 2.130638 0.259771
-18.156990 2.239451 0.259449
-18.213916 2.360019 0.260465
-18.278551 2.482525 0.261602
-18.258526 2.594001 0.261538
-18.224719 2.703382 0.261286
-18.090323 2.796994 0.259601
-17.925316 2.884208 0.257482
-17.842382 2.983290 0.256549
-17.776125 3.084450 0.255863
-17.809810 3.202986 0.256626
-17.904666 3.333587 0.258283
-17.905060 3.447465 0.258589
-17.920124 3.564534 0.259118
-17.890838 3.672970 0.259015
-17.820737 3.772679 0.258331
-17.868123 3.897412 0.259359
-17.937018 4.027892 0.260713
-18.050150 4.169798 0.262724
-18.169088 4.314876 0.264836
-18.191762 4.438353 0.265558
-18.196081 4.557881 0.266025
-18.136528 4.661414 0.265567
-18.025588 4.750998 0.264365
-17.989480 4.859724 0.264267
-17.964010 4.971311 0.264336
-17.990548 5.097701 0.265182
-18.059613 5.237191 0.266669
-18.064992 5.359133 0.267229
-18.046232 5.474265 0.267443
-17.979645 5.574765 0.266958
-17.865370 5.659723 0.265772
-17.821130 5.766267 0.265635
-17.778188 5.873120 0.265527
-17.774118 5.992986 0.266011
-17.790639 6.120382 0.266815
-17.753589 6.229722 0.266828
-17.707993 6.336021 0.266722
-17.640879 6.434378 0.266301
-17.517468 6.511425 0.265036
-17.456803 6.611069 0.264727
-17.410806 6.716089 0.264649
-17.355114 6.817233 0.264433
-17.348378 6.937758 0.264974
-17.294032 7.039415 0.264799
-17.275110 7.155585 0.265177
-17.282918 7.283379 0.265978
-17.272650 7.404183 0.266514
-17.292560 7.538653 0.267530
-17.310386 7.673167 0.268529
-17.310499 7.800651 0.269268
-17.339464 7.942059 0.270471
-17.339576 8.071190 0.271241
-17.294477 8.179679 0.271315
-17.232593 8.280178 0.271136
-17.115437 8.353535 0.270094
-16.950273 8.402093 0.268296
-16.804757 8.458804 0.266810
-16.665076 8.517057 0.265417
-16.479317 8.550050 0.263289
-16.310718 8.590005 0.261432
-16.174337 8.645363 0.260092
-16.068296 8.715864 0.259242
-15.917594 8.760949 0.257673
-15.856954 8.854776 0.257566
-16.124395 9.134357 0.262815
-16.482286 9.471157 0.269591
-16.811113 9.797809 0.275947
-16.575856 9.797443 0.273067
-15.385753 9.221865 0.254389
-16.841455 10.235362 0.279491
-23.249950 14.722869 0.390275
-22.089499 14.178654 0.372249
-21.589017 14.045196 0.365260
-21.724813 14.324024 0.369038
-21.585362 14.422878 0.368165
-21.597746 14.623632 0.369900
-21.496854 14.748498 0.369715
-21.291447 14.800524 0.367737
-21.050100 14.825153 0.365133
-20.794638 14.836949 0.362274
-20.609924 14.896838 0.360642
-20.449653 14.972880 0.359438
-20.366079 15.104514 0.359592
-20.353160 15.289398 0.361013
-20.299365 15.444735 0.361733
-20.245690 15.600958 0.362476
-20.152771 15.727377 0.362533
-20.049028 15.845312 0.362409
-19.944323 15.962348 0.362280
-19.861695 16.097140 0.362566
-19.814912 16.261678 0.363527
-19.746118 16.409013 0.364105
-19.685821 16.564159 0.364861
-19.605827 16.703391 0.365271
-19.496833 16.818084 0.365156
-19.393939 16.937980 0.365168
-19.265379 17.035203 0.364709
-19.154661 17.147875 0.364598
-19.067017 17.281337 0.364941
-18.972465 17.408872 0.365169
-18.919448 17.575268 0.366218
-18.848799 17.726336 0.366949
-18.770433 17.870937 0.367551
-18.695597 18.019675 0.368244
-18.606250 18.155098 0.368671
-18.518600 18.292726 0.369151
-18.419668 18.419668 0.369425
-18.318703 18.544898 0.369676
-18.214030 18.666646 0.369868
-18.109873 18.789179 0.370087
-18.037340 18.945211 0.370973
-17.974532 19.112711 0.372086
-17.900649 19.269714 0.372998
-17.827798 19.429017 0.373957
-17.730186 19.562246 0.374420
-17.622756 19.685118 0.374695
-17.528006 19.822697 0.375260
-17.449471 19.979595 0.376196
-17.372216 20.139226 0.377187
-17.279182 20.281669 0.377862
-17.178134 20.415504 0.378385
-17.064828 20.535307 0.378657
-16.938708 20.639876 0.378662
-16.818428 20.751666 0.378812
-16.731701 20.905599 0.379741
-16.650831 21.068248 0.380832
-16.579711 21.244936 0.382180
-16.504082 21.417693 0.383459
-16.417902 21.578422 0.384526
-16.344761 21.758053 0.385932
-16.269317 21.936635 0.387322
-16.205496 22.133136 0.389028
-16.141695 22.332197 0.390779
-16.078777 22.535113 0.392596
-15.989693 22.703620 0.393815
-15.920059 22.901965 0.395553
-15.823005 23.063014 0.396651
-15.735901 23.240464 0.398034
-15.655413 23.429982 0.399628
-15.586984 23.640305 0.401576
-15.534493 23.878230 0.403991
-15.482963 24.121534 0.406492
-15.430312 24.367125 0.409028
-15.365781 24.597853 0.411310
-15.283505 24.803560 0.413174
-15.217726 25.039528 0.415542
-15.137077 25.254688 0.417563
-15.055344 25.471462 0.419612
-14.986038 25.713095 0.422070
-14.893474 25.918534 0.423934
-14.806489 26.137109 0.426015
-14.733188 26.383895 0.428556
-14.693575 26.696464 0.432160
-14.692786 27.087164 0.437017
-14.689205 27.481570 0.441918
-14.670496 27.856368 0.446489
-14.631534 28.200733 0.450561
-14.590636 28.549071 0.454687
-14.550882 28.907638 0.458967
-14.513347 29.279038 0.463442
-14.499008 29.706808 0.468796
-14.462776 30.099729 0.473587
-14.410252 30.467918 0.477980
-14.329966 30.785492 0.481573
-14.277564 31.171428 0.486231
-14.246035 31.613514 0.491754
-14.117625 31.848852 0.494058
-13.580333 31.151283 0.481935
-13.352598 31.149254 0.480627
-13.272721 31.495185 0.484699
-12.931579 31.219593 0.479228
-10.418551 25.595700 0.391911
-10.327528 25.824746 0.394440
-10.393797 26.460227 0.403165
-10.423370 27.021571 0.410735
-10.490653 27.701006 0.420077
-10.685247 28.746159 0.434924
-11.248882 30.840612 0.465559
-11.616630 32.466307 0.489015
-11.664022 33.240365 0.499587
-11.664822 33.907137 0.508522
-11.615496 34.449473 0.515578
-11.534126 34.914299 0.521465
-11.463907 35.430162 0.528109
-11.195770 35.340348 0.525737
-10.900043 35.154648 0.521969
-10.476457 34.536249 0.511823
-11.016922 37.136714 0.549350
-9.070298 32.775844 0.482289
-9.204112 34.071314 0.500511
-8.747983 33.190403 0.486773
-8.944627 34.801559 0.509588
-8.778426 35.045442 0.512361
-8.821074 36.155503 0.527788
-8.718940 36.713731 0.535146
-8.776878 37.993200 0.553000
-8.879075 39.540315 0.574715
-8.718714 39.971919 0.580200
-8.565237 40.459004 0.586496
-8.495621 41.381709 0.599105
-8.222137 41.335473 0.597694
-8.029203 41.701184 0.602258
-7.836663 42.090642 0.607177
-7.633064 42.442710 0.611569
-7.409914 42.704386 0.614672
-7.154551 42.789750 0.615258
-6.898503 42.874114 0.615850
-6.621842 42.828571 0.614601
-6.348952 42.801160 0.613637
-6.070075 42.725740 0.612010
-5.756568 42.384964 0.606612
-5.459388 42.133913 0.602528
-5.156143 41.804902 0.597359
-4.869151 41.576302 0.593655
-4.601828 41.496076 0.592095
-4.313535 41.202671 0.587519
-4.050055 41.120899 0.585988
-3.786697 41.026138 0.584296
-3.546372 41.181883 0.586193
-3.292912 41.194039 0.586067
-3.031509 41.097158 0.584413
-2.724481 40.304265 0.572889
-2.444642 39.791450 0.565376
-2.250751 40.715818 0.578303
-2.172671 44.225739 0.627955
-1.166110 37.997342 0.539123
-0.954983 38.901680 0.551860
-0.677235 36.786576 0.521786
-0.450718 36.725955 0.520878
-0.227579 37.089074 0.525998
0.000000 37.521003 0.532114
0.230987 37.644538 0.533876
0.461520 37.606175 0.533362
0.693912 37.692428 0.534635
0.929508 37.863942 0.537139
1.166836 38.021011 0.539458
1.401645 38.054889 0.540051
1.633569 38.009511 0.539539
1.868314 38.030415 0.539988
2.103535 38.052710 0.540478
2.340767 38.100679 0.541353
2.575868 38.105772 0.541640
2.807442 38.059564 0.541218
3.038798 38.015093 0.540840
3.258682 37.841119 0.538639
3.467745 37.570526 0.535081
3.672806 37.290625 0.531405
3.885954 37.118436 0.529281
4.100254 36.973232 0.527560
4.260080 36.375617 0.519396
4.378450 35.499533 0.507260
4.495666 34.696195 0.496166
4.845605 35.677647 0.510617
3.697921 26.028739 0.372840
3.740093 25.213658 0.361486
3.784431 24.476843 0.351249
3.867416 24.035944 0.345256
3.957824 23.670850 0.340354
4.069818 23.454937 0.337602
4.189452 23.294930 0.335663
4.314016 23.170539 0.334246
4.431357 23.015092 0.332389
4.526296 22.755227 0.329031
4.614555 22.477245 0.325415
4.699956 22.200850 0.321825
4.808424 22.044759 0.319984
4.941284 22.004539 0.319834
5.087309 22.021855 0.320534
5.238338 22.057602 0.321516
5.386436 22.077730 0.322285
5.535924 22.100646 0.323109
5.686609 22.125334 0.323974
5.836698 22.144800 0.324777
5.994796 22.191231 0.325992
6.147723 22.215017 0.326889
6.289763 22.197511 0.327193
6.418267 22.132367 0.326807
6.535083 22.028975 0.325867
6.656966 21.945075 0.325224
6.784675 21.881825 0.324897
6.917595 21.835944 0.324840
7.047136 21.779761 0.324641
7.163955 21.685601 0.323887
7.264847 21.546231 0.322465
7.356369 21.383389 0.320697
7.423043 21.154340 0.317939
7.459315 20.847390 0.314008
7.491911 20.540273 0.310069
7.525171 20.244713 0.306298
7.589464 20.040295 0.303904
7.678281 19.905194 0.302565
7.769731 19.779957 0.301380
7.870190 19.679992 0.300587
7.960495 19.556890 0.299447
8.052163 19.439642 0.298403
8.146812 19.331782 0.297509
8.232102 19.204040 0.296315
8.324670 19.095566 0.295424
8.406770 18.965368 0.294202
8.481291 18.820915 0.292763
8.551102 18.669156 0.291213
8.611498 18.500336 0.289398
8.684110 18.361007 0.288047
8.769544 18.251053 0.287161
8.856357 18.145661 0.286352
8.947595 18.050763 0.285715
9.032833 17.945157 0.284916
9.098014 17.801817 0.283521
9.145622 17.627218 0.281629
9.172650 17.417047 0.279165
9.195349 17.203288 0.276638
9.240869 17.036179 0.274857
9.329421 16.950439 0.274392
9.433148 16.892691 0.274389
9.552344 16.862246 0.274842
9.667864 16.824608 0.275190
9.769981 16.763367 0.275164
9.865338 16.690723 0.274960
9.926528 16.561411 0.273828
