5.396581 -14.795590 -1.829191
5.682073 -15.880330 -1.958951
5.848445 -16.667018 -2.051530
5.808316 -16.883530 -2.073754
5.643196 -16.736704 -2.051428
5.365809 -16.242536 -1.986785
5.011587 -15.488728 -1.890782
4.748453 -14.988875 -1.826171
4.543888 -14.654877 -1.782048
4.381066 -14.442440 -1.752914
4.247992 -14.319467 -1.734792
4.141023 -14.279653 -1.726858
4.023570 -14.199779 -1.714180
3.874685 -14.001313 -1.687320
3.763254 -13.930624 -1.675987
3.693297 -14.012604 -1.683092
3.610135 -14.046236 -1.684439
3.525292 -14.073754 -1.685113
3.432535 -14.069154 -1.682009
3.349530 -14.104206 -1.683710
3.263970 -14.129018 -1.684250
3.182303 -14.171437 -1.686947
3.130152 -14.350533 -1.705948
3.079863 -14.548129 -1.727158
3.027010 -14.744402 -1.748222
2.973840 -14.950505 -1.770462
2.904413 -15.084619 -1.784200
2.817093 -15.130577 -1.787558
2.720920 -15.129341 -1.785406
2.609714 -15.040150 -1.772958
2.493552 -14.913368 -1.756176
2.383208 -14.811609 -1.742438
2.264733 -14.647777 -1.721497
2.163097 -14.582418 -1.712224
2.074078 -14.598919 -1.712635
1.994872 -14.688017 -1.721619
1.925317 -14.859016 -1.740245
1.855859 -15.046905 -1.760883
1.792423 -15.304994 -1.789765
1.728885 -15.589880 -1.821805
1.656090 -15.818892 -1.847344
1.576367 -16.005119 -1.867927
1.479625 -16.030677 -1.869815
1.374033 -15.955825 -1.860066
1.265096 -15.826244 -1.844021
1.154734 -15.654353 -1.823133
1.048166 -15.505918 -1.805063
0.949722 -15.458628 -1.798845
0.856227 -15.489040 -1.801739
0.765320 -15.578448 -1.811559
0.675211 -15.710665 -1.826418
0.581652 -15.791963 -1.835419
0.485658 -15.825024 -1.838881
0.387422 -15.781829 -1.833551
0.289301 -15.714453 -1.825482
0.191796 -15.628156 -1.815287
0.095756 -15.605575 -1.812561
0.000000 -15.698180 -1.823283
-0.097353 -15.865835 -1.842790
-0.197304 -16.076953 -1.867417
-0.300512 -16.323450 -1.896227
-0.405182 -16.505301 -1.917605
-0.507932 -16.550822 -1.923219
-0.607665 -16.498204 -1.917502
-0.702402 -16.343324 -1.899966
-0.804979 -16.385731 -1.905435
-0.910566 -16.472029 -1.916084
-1.014740 -16.516926 -1.921994
-1.121578 -16.591921 -1.931485
-1.219114 -16.527128 -1.924777
-1.313718 -16.434495 -1.914892
-1.406943 -16.337986 -1.904617
-1.494979 -16.197018 -1.889217
-1.590898 -16.152662 -1.885147
-1.689107 -16.134260 -1.884173
-1.784305 -16.089622 -1.880204
-1.886395 -16.107391 -1.883597
-1.981473 -16.065356 -1.880068
-2.072418 -15.994296 -1.873205
-2.160476 -15.907344 -1.864539
-2.242476 -15.784228 -1.851686
-2.327115 -15.688136 -1.842054
-2.409422 -15.583593 -1.831480
-2.487094 -15.457257 -1.818392
-2.569852 -15.369702 -1.809913
-2.654727 -15.299568 -1.803538
-2.745423 -15.265587 -1.801484
-2.847976 -15.296449 -1.807155
-2.941717 -15.278363 -1.807116
-3.030939 -15.237561 -1.804456
-3.117794 -15.186607 -1.800654
-3.190799 -15.072151 -1.789370
-3.260939 -14.950138 -1.777227
-3.333877 -14.846429 -1.767297
-3.412328 -14.771229 -1.760805
-3.499473 -14.735589 -1.759083
-3.589691 -14.713298 -1.759018
-3.675632 -14.673946 -1.756977
-3.768876 -14.663862 -1.758505
-3.857264 -14.634704 -1.757814
-3.951323 -14.626808 -1.759744
-4.059289 -14.668386 -1.767710
-4.174183 -14.731313 -1.778346
-4.327270 -14.921898 -1.804525
-4.501344 -15.173488 -1.838256
-4.689649 -15.459701 -1.876381
-4.890090 -15.771441 -1.917823
-5.060326 -15.973324 -1.946112
-5.217911 -16.126391 -1.968624
-5.364080 -16.237301 -1.986144
-5.481672 -16.257654 -1.992711
-5.583174 -16.229091 -1.993371
-5.666138 -16.147474 -1.987579
-5.745564 -16.057776 -1.980841
-5.811581 -15.933381 -1.969857
-5.865199 -15.778947 -1.955177
-5.932964 -15.666238 -1.945686
-5.988114 -15.523601 -1.932498
-6.046210 -15.392267 -1.920730
-6.125231 -15.316594 -1.915941
-6.192563 -15.213534 -1.907767
-6.255529 -15.102184 -1.898581
-6.323728 -15.005739 -1.891299
-6.366016 -14.850791 -1.876658
-6.425823 -14.739891 -1.867591
-6.478855 -14.616062 -1.856903
-6.536170 -14.504477 -1.847788
-6.616193 -14.444774 -1.845319
-6.675159 -14.340442 -1.837188
-6.756759 -14.285967 -1.835486
-6.842666 -14.240862 -1.835051
-6.920778 -14.179882 -1.832631
-7.024728 -14.171596 -1.837096
-7.148116 -14.200868 -1.846542
-7.267497 -14.220098 -1.854806
-7.399160 -14.261097 -1.866040
-7.511959 -14.263722 -1.872380
-7.620376 -14.256721 -1.877564
-7.707427 -14.209172 -1.877494
-7.779654 -14.134699 -1.873926
-7.895121 -14.138424 -1.880807
-8.006474 -14.133404 -1.886639
-8.161774 -14.203619 -1.902662
-8.337724 -14.305896 -1.923179
-8.490791 -14.365190 -1.938118
-8.672772 -14.469646 -1.959354
-8.796911 -14.474601 -1.967297
-8.895356 -14.436250 -1.969466
-8.983692 -14.381275 -1.969449
-9.019869 -14.243930 -1.958183
-9.112367 -14.196525 -1.959315
-9.192241 -14.129489 -1.957811
-9.209733 -13.968122 -1.943245
-9.303334 -13.923424 -1.944932
-9.414314 -13.904067 -1.950261
-9.531106 -13.892180 -1.956760
-9.728491 -13.995021 -1.979616
-9.832979 -13.961757 -1.983408
-9.953832 -13.950734 -1.990481
-10.108861 -13.985710 -2.004284
-10.237383 -13.982009 -2.012718
-10.427581 -14.059965 -2.033112
-10.549752 -14.043771 -2.040092
-10.677411 -14.033564 -2.048088
-10.749026 -13.949236 -2.045369
-10.740521 -13.762706 -2.027643
-10.801755 -13.667429 -2.023333
-10.832332 -13.534571 -2.013466
-10.908127 -13.459154 -2.012166
-11.102540 -13.528484 -2.032678
-11.282721 -13.577291 -2.050375
-11.468113 -13.629380 -2.068829
-11.699393 -13.732318 -2.095311
-11.867847 -13.758133 -2.110321
-12.027601 -13.771569 -2.123663
-12.179499 -13.773987 -2.135520
-12.274681 -13.711166 -2.137417
-12.367898 -13.645872 -2.139028
-12.469881 -13.589874 -2.142204
-12.543262 -13.502587 -2.140537
-12.570486 -13.366472 -2.131146
-12.604272 -13.238681 -2.123062
-12.642615 -13.116843 -2.115924
-12.704232 -13.019931 -2.112826
-12.816427 -12.974682 -2.118205
-13.030869 -13.030869 -2.140391
-13.242391 -13.080872 -2.161910
-13.418903 -13.093530 -2.177570
-13.602824 -13.111026 -2.194319
-13.690573 -13.034509 -2.195531
-13.751096 -12.932205 -2.192471
-13.798907 -12.818528 -2.187512
-13.775505 -12.640213 -2.171466
-13.831670 -12.536295 -2.168153
-13.927207 -12.468088 -2.171095
-14.009062 -12.387362 -2.171966
-14.158162 -12.365238 -2.183278
-14.243929 -12.286897 -2.184836
-14.326756 -12.205831 -2.186012
-14.412681 -12.127203 -2.187727
-14.446133 -12.004728 -2.181583
-14.525628 -11.920875 -2.182500
-14.584051 -11.819813 -2.180340
-14.631698 -11.710413 -2.176680
-14.711269 -11.626731 -2.177864
-14.755785 -11.515528 -2.173952
-14.810802 -11.412933 -2.171700
-14.869583 -11.313495 -2.170099
-14.910446 -11.200803 -2.165991
-14.978250 -11.108627 -2.165898
-15.068108 -11.032606 -2.169062
-15.156402 -10.955036 -2.172055
-15.253647 -10.883459 -2.176380
-15.363963 -10.820524 -2.182605
-15.479362 -10.760315 -2.189578
-15.605173 -10.706352 -2.198041
-15.707878 -10.635657 -2.203273
-15.798270 -10.556066 -2.206825
-15.856141 -10.454578 -2.205907
-15.928835 -10.362844 -2.207132
-15.976984 -10.255196 -2.205043
-16.006418 -10.135953 -2.200480
-16.002917 -9.996699 -2.191525
-15.999761 -9.858763 -2.182768
-16.022063 -9.737378 -2.177618
-16.111389 -9.656795 -2.181664
-16.257503 -9.609275 -2.193424
-16.343421 -9.525229 -2.197089
-16.465792 -9.461679 -2.205693
-16.536386 -9.367747 -2.207409
-16.572667 -9.254442 -2.204630
-16.588534 -9.130230 -2.199247
-16.423928 -8.908768 -2.170136
-16.284016 -8.703988 -2.144552
-16.170306 -8.516057 -2.122655
-16.077303 -8.341472 -2.103688
-16.153698 -8.255706 -2.107016
-16.236346 -8.172690 -2.111216
-16.400520 -8.129585 -2.126037
-16.617313 -8.110415 -2.147648
-16.769847 -8.057831 -2.160931
-17.000806 -8.040782 -2.184294
-17.160048 -7.987623 -2.198415
-17.224987 -7.889624 -2.200491
-17.391011 -7.836932 -2.215516
-17.409586 -7.717139 -2.211808
-17.483927 -7.622079 -2.215269
-17.572586 -7.532754 -2.220604
-17.634115 -7.431380 -2.222575
-17.712546 -7.336777 -2.226745
-17.697821 -7.203774 -2.219295
-17.693575 -7.075806 -2.213276
-17.695554 -6.950961 -2.208147
-17.640197 -6.804575 -2.195988
-17.668789 -6.691351 -2.194395
-17.718733 -6.586238 -2.195537
-17.799545 -6.492251 -2.200573
-17.952924 -6.423659 -2.214621
-18.083876 -6.345620 -2.225929
-18.265037 -6.283585 -2.243440
-18.337751 -6.183028 -2.247669
-18.370526 -6.068802 -2.247080
-18.397550 -5.952776 -2.245875
-18.283830 -5.792290 -2.227612
-18.258452 -5.661212 -2.220246
-18.285710 -5.546910 -2.219380
-18.320482 -5.434927 -2.219511
-18.459638 -5.353196 -2.232349
-18.615720 -5.274847 -2.247267
-18.705539 -5.176520 -2.254233
-18.805209 -5.080087 -2.262446
-19.032077 -5.016278 -2.285994
-19.149494 -4.921765 -2.296427
-19.174105 -4.802863 -2.295801
-19.385779 -4.729664 -2.317627
-19.615326 -4.658335 -2.341609
-20.168818 -4.659235 -2.404224
-21.215783 -4.764163 -2.525496
-22.529652 -4.914189 -2.678257
-23.794551 -5.037345 -2.824896
-24.580153 -5.046279 -2.914433
-25.096319 -4.991968 -2.971946
-25.352483 -4.881402 -2.998678
-25.505630 -4.748776 -3.013289
-25.584534 -4.601223 -3.019218
-25.539855 -4.431585 -3.010680
-25.438496 -4.253379 -2.995599
-25.302490 -4.071205 -2.976585
-25.092881 -3.879679 -2.949071
-24.907791 -3.694722 -2.924598
-24.607168 -3.495957 -2.886727
-23.782407 -3.230038 -2.787595
-22.794230 -2.953501 -2.669594
-21.899311 -2.701022 -2.562794
-21.253688 -2.489096 -2.485405
-20.834231 -2.310473 -2.434650
-20.484341 -2.144519 -2.392180
-20.312483 -2.000605 -2.370632
-20.380667 -1.881128 -2.377198
-20.448996 -1.760962 -2.383862
-20.520931 -1.640374 -2.391030
-20.540479 -1.515157 -2.392179
-20.440829 -1.381756 -2.379542
-20.436092 -1.255519 -2.378048
-20.457491 -1.130880 -2.379686
-20.664827 -1.015198 -2.403035
-20.820372 -0.894816 -2.420438
-20.922244 -0.770612 -2.431686
-20.974507 -0.643692 -2.437255
-20.974347 -0.514891 -2.436823
-21.066047 -0.387823 -2.447155
-21.076754 -0.258664 -2.448168
-21.027801 -0.129027 -2.442344
-21.410536 0.000000 -2.652594
-21.435036 0.131525 -2.655679
-21.393500 0.262551 -2.650683
-21.473158 0.395318 -2.660803
-21.510180 0.528045 -2.665742
-21.522483 0.660509 -2.667719
-21.480121 0.791160 -2.663019
-21.469885 0.922730 -2.662402
-21.407831 1.051699 -2.655457
-21.362498 1.180909 -2.650683
-21.272312 1.306893 -2.640438
-21.179228 1.431670 -2.629925
-21.117899 1.557750 -2.623447
-21.114178 1.687796 -2.624222
-21.185908 1.824421 -2.634479
-21.245792 1.960979 -2.643372
-21.326813 2.100508 -2.655006
-21.375479 2.237813 -2.662724
-21.375253 2.370471 -2.664457
-21.396865 2.505864 -2.669017
-21.396641 2.639024 -2.670959
-21.431845 2.776973 -2.677430
-21.461789 2.914860 -2.683355
-21.491788 3.053353 -2.689398
-21.571241 3.199791 -2.701746
-21.623085 3.343204 -2.710758
-21.645168 3.482737 -2.716154
-21.644677 3.619043 -2.718828
-21.586016 3.745529 -2.714295
-21.550501 3.875727 -2.712769
-21.524932 4.007628 -2.712595
-21.464630 4.132829 -2.708140
-21.420376 4.260778 -2.705804
-21.338428 4.380757 -2.698797
-21.237240 4.495958 -2.689438
-21.153549 4.614033 -2.682374
-21.034760 4.723513 -2.670936
-20.941893 4.837825 -2.662863
-20.865484 4.955228 -2.656964
-20.795133 5.073513 -2.651920
-20.781225 5.205426 -2.654169
-20.719431 5.325267 -2.650400
-20.603353 5.430419 -2.639765
-20.492391 5.535867 -2.629850
-20.338974 5.628552 -2.614545
-20.255058 5.739360 -2.608236
-20.250942 5.872664 -2.612297
-20.200313 5.992594 -2.610460
-20.187225 6.123728 -2.613575
-20.157460 6.250018 -2.614637
-20.033054 6.346442 -2.603503
-19.929579 6.448484 -2.595148
-19.811118 6.544709 -2.584904
-19.789383 6.672482 -2.587361
-19.830984 6.822307 -2.598224
-19.818411 6.954267 -2.602119
-19.863718 7.107352 -2.613744
-19.836959 7.235382 -2.616016
-19.786411 7.354815 -2.615252
-19.779134 7.490560 -2.620316
-19.743336 7.615845 -2.621715
-19.700557 7.738542 -2.622290
-19.645381 7.856349 -2.621313
-19.573402 7.967217 -2.618183
-19.440849 8.052663 -2.607012
-19.220160 8.099772 -2.584034
-19.045987 8.164350 -2.567305
-18.946758 8.259797 -2.560712
-18.936636 8.394033 -2.566257
-19.017638 8.569941 -2.584312
-19.109334 8.752719 -2.604022
-19.115314 8.897756 -2.612228
-19.133878 9.049650 -2.622303
-19.091107 9.173186 -2.624106
-18.998993 9.272842 -2.619216
-18.966041 9.401290 -2.622577
-18.908012 9.517494 -2.622579
-18.880019 9.649053 -2.626859
-18.854354 9.782303 -2.631590
-18.795562 9.898642 -2.631812
-18.731695 10.012300 -2.631422
-18.641313 10.111536 -2.627392
-18.540815 10.204754 -2.622003
-18.446374 10.300749 -2.617536
-18.346461 10.393142 -2.612359
-18.262605 10.494175 -2.609538
-18.177511 10.594169 -2.606619
-18.073112 10.682422 -2.600999
-17.989257 10.782346 -2.598403
-17.852489 10.849816 -2.588216
-17.691475 10.901167 -2.574521
-17.567805 10.974253 -2.566275
-17.451946 11.051323 -2.559208
-17.331817 11.124826 -2.551554
-17.249723 11.222176 -2.549558
-17.129282 11.294010 -2.541951
-16.976067 11.343046 -2.529496
-16.809433 11.381510 -2.515025
-16.583026 11.377234 -2.491548
-16.431059 11.421877 -2.479199
-16.310958 11.487473 -2.471666
-16.242883 11.589278 -2.472080
-16.205311 11.713187 -2.477254
-16.125147 11.806552 -2.476027
-15.998035 11.864951 -2.467642
-15.865784 11.918458 -2.458476
-15.724718 11.964123 -2.447947
-15.659790 12.067147 -2.449320
-15.623305 12.192547 -2.455269
-15.541387 12.282797 -2.454193
-14.924693 11.944910 -2.368338
-14.378003 11.652818 -2.292889
-16.355641 13.422727 -2.621352
-17.161183 14.260933 -2.764431
-17.383708 14.627102 -2.814681
-17.451859 14.868295 -2.840434
-17.287920 14.912662 -2.828592
-17.164813 14.991140 -2.823447
-17.108868 15.128332 -2.829460
-17.083832 15.294001 -2.840786
-17.011705 15.418511 -2.844471
-16.985747 15.585886 -2.856068
-17.059743 15.847691 -2.884806
-16.933979 15.925545 -2.880009
-17.284869 16.456564 -2.956804
-16.045173 15.465074 -2.760919
-16.696172 16.291334 -2.890084
-16.618179 16.823376 -2.929698
-17.192249 17.619475 -3.049906
-16.531727 17.151836 -2.951344
-16.440815 17.268328 -2.953975
-16.240495 17.268872 -2.936966
-15.891928 17.107364 -2.892859
-15.639577 17.044260 -2.865906
-15.396490 16.987409 -2.840408
-15.090780 16.856828 -2.803039
-14.860371 16.805827 -2.779343
-14.743483 16.881246 -2.776803
-14.678661 17.016647 -2.784207
-14.580866 17.114486 -2.785524
-14.479039 17.207742 -2.786190
-14.345547 17.263004 -2.780833
-14.173675 17.270673 -2.768007
-14.005864 17.281343 -2.755891
-13.812586 17.258280 -2.738646
-13.638603 17.256885 -2.725093
-13.460770 17.248383 -2.710657
-13.324285 17.291204 -2.704487
-13.135120 17.263786 -2.687542
-12.941585 17.227765 -2.669522
-12.841097 17.314215 -2.670658
-12.664740 17.297244 -2.656003
-12.469657 17.251895 -2.637242
-12.330421 17.281627 -2.630171
-12.223462 17.355982 -2.630023
-12.055960 17.343226 -2.616831
-12.099731 17.636110 -2.649771
-11.652131 17.209115 -2.574825
-11.082301 16.585836 -2.471350
-11.399494 17.289266 -2.565693
-9.776324 15.865971 -2.308868
-9.573072 15.751711 -2.283649
-9.696806 16.178144 -2.336802
-10.931245 19.296346 -2.747613
-11.039008 19.768432 -2.805136
-11.254542 20.448153 -2.891735
-11.112041 20.485812 -2.887364
-10.985431 20.552295 -2.887179
-10.796538 20.500487 -2.870541
-10.711727 20.645720 -2.881619
-10.601549 20.743741 -2.886166
-10.439776 20.740273 -2.876717
-10.253462 20.685201 -2.860298
-10.088953 20.671110 -2.849736
-9.923809 20.653294 -2.838832
-9.762171 20.640376 -2.828769
-9.610674 20.646897 -2.821528
-9.454847 20.642252 -2.812912
-9.296524 20.630005 -2.803417
-9.112962 20.558513 -2.786051
-8.947900 20.525164 -2.774039
-8.784233 20.492065 -2.762229
-8.613826 20.439970 -2.748030
-8.491586 20.500503 -2.749112
-8.357290 20.531711 -2.746368
-8.214508 20.540983 -2.740815
-8.091045 20.597947 -2.741740
-7.948353 20.605330 -2.736179
-7.836281 20.692026 -2.741255
-7.720469 20.770116 -2.745272
-7.590098 20.809468 -2.744266
-7.476032 20.894109 -2.749327
-7.356316 20.964179 -2.752556
-7.237208 21.037013 -2.756236
-7.112247 21.093645 -2.757887
-6.978410 21.123949 -2.756198
-6.847014 21.161270 -2.755534
-6.718967 21.208958 -2.756324
-6.598568 21.281597 -2.760450
-6.484696 21.377177 -2.767634
-6.360663 21.441026 -2.770796
-6.234625 21.499105 -2.773305
-6.098641 21.523013 -2.771510
-5.957933 21.529204 -2.767547
-5.827604 21.572330 -2.768442
-5.696772 21.613915 -2.769241
-5.568412 21.665458 -2.771415
-5.441980 21.725601 -2.774785
-5.308600 21.758699 -2.774799
-5.175734 21.793993 -2.775198
-5.037803 21.807554 -2.772936
-4.901598 21.827808 -2.771635
-4.772908 21.881933 -2.774737
-4.641622 21.925303 -2.776573
-4.510431 21.970066 -2.778684
-4.379544 22.017453 -2.781226
-4.242107 22.032184 -2.779747
-4.104662 22.046103 -2.778273
-3.967477 22.060664 -2.776988
-3.830782 22.077344 -2.776076
-3.698860 22.122047 -2.778791
-3.562456 22.140620 -2.778326
-3.416795 22.099059 -2.770428
-3.265693 22.015514 -2.757390
-3.113680 21.916414 -2.742534
-2.967509 21.849438 -2.731823
-2.831831 21.855221 -2.730322
-2.705512 21.935710 -2.738252
-2.581999 22.046960 -2.750109
-2.449393 22.086916 -2.753167
-2.301807 21.986741 -2.738868
-2.150159 21.830934 -2.717765
-2.002799 21.698891 -2.699746
-1.862301 21.625786 -2.689178
-1.728415 21.622318 -2.687377
-1.598516 21.670554 -2.692102
-1.471073 21.762134 -2.702307
-1.339903 21.809614 -2.707131
-1.205596 21.809094 -2.706097
-1.071630 21.813524 -2.705780
-0.936034 21.779423 -2.700787
-0.800580 21.735891 -2.694729
-0.665800 21.694888 -2.689088
-0.531826 21.664199 -2.684829
-0.398712 21.657542 -2.683651
-0.265840 21.661483 -2.683886
-0.132906 21.659992 -2.683550
0.000000 21.637032 -2.680655
0.132355 21.570249 -2.672431
0.263651 21.483110 -2.661786
0.393661 21.383180 -2.649654
0.522633 21.289709 -2.638419
0.652424 21.259052 -2.635066
0.782699 21.250412 -2.634541
0.914536 21.279208 -2.638757
1.047370 21.319712 -2.644527
1.180059 21.347123 -2.648775
1.312238 21.359316 -2.651237
1.444588 21.370336 -2.653656
1.575646 21.360516 -2.653587
1.705376 21.334108 -2.651556
1.835792 21.317945 -2.650897
1.963739 21.275696 -2.647092
2.092167 21.242123 -2.644463
2.217221 21.178783 -2.638221
2.338810 21.089757 -2.628870
2.458627 20.993522 -2.618705
2.574084 20.870118 -2.605233
2.692910 20.783069 -2.596380
2.814404 20.722142 -2.590878
2.934951 20.658387 -2.585109
3.059384 20.624690 -2.583193
3.178372 20.556989 -2.577108
3.297169 20.491864 -2.571431
3.415763 20.428909 -2.566113
3.536684 20.382410 -2.562950
3.667464 20.392481 -2.566998
3.799367 20.406365 -2.571632
3.932240 20.422830 -2.576699
4.062918 20.425666 -2.580153
4.181479 20.367755 -2.576031
4.296379 20.294504 -2.570052
4.410132 20.218744 -2.563836
4.522482 20.139527 -2.557262
4.648689 20.123165 -2.558758
4.779707 20.126402 -2.562851
4.919678 20.164601 -2.571511
5.064705 20.219435 -2.582418
5.197886 20.223822 -2.587003
5.329876 20.221886 -2.590890
5.454717 20.191996 -2.591300
5.579409 20.161394 -2.591717
5.709424 20.149408 -2.594631
5.837685 20.130322 -2.596737
5.975755 20.143549 -2.603124
6.118729 20.170745 -2.611441
6.250994 20.160606 -2.615045
6.388462 20.165693 -2.620741
6.515198 20.135763 -2.621997
6.633739 20.080615 -2.620067
6.754097 20.031436 -2.619008
6.859179 19.938164 -2.612267
6.961243 19.838291 -2.604729
7.061276 19.734943 -2.596800
7.143708 19.585618 -2.582870
7.224557 19.435981 -2.568934
7.313988 19.312890 -2.558548
7.397500 19.177298 -2.546551
7.496809 19.085159 -2.540376
7.603860 19.014014 -2.537069
7.707253 18.934739 -2.532754
7.817153 18.872276 -2.530767
7.912771 18.776419 -2.524376
8.034970 18.744167 -2.526621
8.154403 18.705000 -2.528038
8.263741 18.642701 -2.526424
8.389127 18.616393 -2.529787
8.500628 18.558958 -2.529022
8.605645 18.487761 -2.526468
8.705658 18.406568 -2.522625
8.771030 18.254147 -2.509065
8.823555 18.078455 -2.492310
8.862354 17.878797 -2.472236
8.911660 17.704427 -2.455639
8.991996 17.594376 -2.447982
9.070161 17.481775 -2.440012
9.186995 17.444285 -2.442602
9.300745 17.400471 -2.444412
9.400276 17.330057 -2.442577
9.501124 17.262404 -2.441213
9.590046 17.173661 -2.436939
9.684095 17.094818 -2.434137
9.786639 17.031308 -2.433599
9.907396 16.999143 -2.437643
10.012803 16.940213 -2.437957
10.128664 16.898655 -2.440875
10.223861 16.822530 -2.438894
10.297755 16.712199 -2.432014
10.385449 16.625236 -2.428586
10.435737 16.479830 -2.416654
10.501856 16.361266 -2.408672
10.574827 16.254677 -2.402487
10.641971 16.140353 -2.395196
10.719134 16.042317 -2.390363
10.775437 15.914320 -2.381098
10.836423 15.794761 -2.373114
10.893767 15.671341 -2.364569
10.946265 15.542502 -2.355219
11.022435 15.448427 -2.351168
11.090631 15.343999 -2.345588
11.163433 15.246789 -2.341155
11.243718 15.160399 -2.338439
11.303556 15.047229 -2.331638
11.381534 14.959009 -2.328745
11.460689 14.872776 -2.326225
11.540362 14.787607 -2.323935
11.636595 14.723750 -2.325077
11.726158 14.651371 -2.324966
11.822568 14.587451 -2.326290
11.916644 14.520472 -2.327226
11.996932 14.436751 -2.325562
12.065882 14.339803 -2.321828
12.133968 14.242406 -2.318069
12.202057 14.145575 -2.314452
12.287466 14.069114 -2.314234
12.392861 14.015281 -2.317844
12.494308 13.956496 -2.320757
12.599229 13.901107 -2.324358
12.693119 13.833163 -2.325976
12.777806 13.755070 -2.325985
12.866787 13.681535 -2.326857
12.954556 13.606596 -2.327587
13.055537 13.545253 -2.330753
13.159229 13.486234 -2.334448
13.254785 13.418452 -2.336749
13.352920 13.352920 -2.339562
13.436314 13.272429 -2.339860
13.518340 13.190556 -2.340005
13.597780 13.106164 -2.339792
13.677033 13.021618 -2.339636
13.764526 12.944836 -2.340972
13.853006 12.868784 -2.342546
13.936726 12.788147 -2.343390
14.023158 12.709849 -2.344766
14.092579 12.616134 -2.343385
14.163664 12.524067 -2.342383
14.220514 12.419693 -2.339138
14.260625 12.301300 -2.333276
14.341935 12.218763 -2.334269
14.448616 12.157440 -2.339446
14.543577 12.085705 -2.342771
14.618175 11.996827 -2.342885
14.673418 11.892241 -2.340000
14.697669 11.763212 -2.332313
14.708150 11.624266 -2.322614
14.707622 11.477941 -2.311365
14.718520 11.341822 -2.302098
14.761451 11.231222 -2.297990
14.819928 11.132806 -2.296416
14.903772 11.053391 -2.298855
14.993413 10.977916 -2.302249
15.084082 10.902763 -2.305855
15.166718 10.821435 -2.308294
15.224162 10.722064 -2.306980
15.289453 10.628302 -2.306948
15.352781 10.533191 -2.306708
15.424912 10.444064 -2.307873
15.510973 10.364101 -2.311191
15.579711 10.272317 -2.311998
15.636325 10.172545 -2.311093
15.670661 10.058575 -2.307002
15.673422 9.925085 -2.298400
15.682275 9.796400 -2.290840
15.704011 9.676528 -2.285299
15.735673 9.563325 -2.281324
15.810789 9.476622 -2.283741
15.882729 9.387759 -2.285769
15.956211 9.299557 -2.288089
16.016917 9.203744 -2.288653
16.054661 9.094853 -2.286029
16.085123 8.982189 -2.282475
16.117445 8.870946 -2.279295
16.146565 8.758319 -2.275770
16.186766 8.652007 -2.273911
16.216512 8.540392 -2.270685
16.253645 8.432963 -2.268597
16.290108 8.325421 -2.266513
16.309899 8.209713 -2.262215
16.326053 8.092673 -2.257526
16.337592 7.973892 -2.252314
16.363799 7.862727 -2.249233
16.401859 7.757502 -2.247879
16.434901 7.650083 -2.245932
16.459091 7.538818 -2.242874
16.481159 7.426924 -2.239629
16.491197 7.310045 -2.234856
16.509171 7.197137 -2.231265
16.545140 7.092324 -2.230203
16.577415 6.986065 -2.228733
16.616828 6.882915 -2.228312
16.651591 6.777914 -2.227355
16.700916 6.678833 -2.228429
16.737993 6.574823 -2.227951
16.771329 6.469415 -2.227062
16.808533 6.365563 -2.226774
16.857275 6.266025 -2.228096
16.914426 6.169410 -2.230604
17.051710 6.101199 -2.243729
16.970831 5.955053 -2.228237
16.856374 5.798974 -2.208496
15.970490 5.384848 -2.088060
15.947062 5.268198 -2.080731
0.970179 0.313915 -0.126333
18.060033 5.478451 -2.338174
17.579127 5.214998 -2.271727
17.417446 5.050966 -2.246786
17.601748 4.987533 -2.266570
17.625540 4.877644 -2.265737
17.583482 4.750047 -2.256541
17.676282 4.658932 -2.264739
17.738839 4.559201 -2.269127
17.726610 4.440285 -2.264035
17.712472 4.321418 -2.258800
17.688748 4.200802 -2.252445
17.697035 4.088224 -2.250264
17.706782 3.976191 -2.248359
17.729663 3.867211 -2.248209
17.748713 3.757431 -2.247658
17.788573 3.651975 -2.249826
17.818533 3.544326 -2.250822
17.814428 3.430014 -2.247603
17.815102 3.316912 -2.245078
17.772335 3.196247 -2.237175
17.713947 3.073661 -2.227409
17.663523 2.953384 -2.218748
17.637731 2.837935 -2.213279
17.628771 2.725632 -2.210014
17.622949 2.614118 -2.207232
17.614813 2.502548 -2.204248
17.594650 2.389640 -2.199849
17.567666 2.276283 -2.194688
17.542903 2.163711 -2.189894
17.521204 2.051971 -2.185573
17.509773 1.941797 -2.182619
17.510938 1.833232 -2.181321
17.519756 1.725545 -2.181060
17.494613 1.614746 -2.176655
17.426692 1.500697 -2.167018
17.369008 1.388420 -2.158745
17.327713 1.278169 -2.152597
17.309522 1.170086 -2.149405
17.339444 1.065272 -2.152269
17.431507 0.963605 -2.162921
17.565202 0.862923 -2.178812
17.648145 0.758480 -2.188482
17.668277 0.650761 -2.190442
17.688961 0.542861 -2.192552
17.681506 0.434057 -2.191257
17.647008 0.324879 -2.186693
17.578840 0.215736 -2.178041
17.511216 0.107449 -2.169540
17.467464 -0.000000 -2.164079
17.439963 -0.107012 -2.160712
17.430092 -0.213910 -2.159611
17.440988 -0.321086 -2.161165
17.465159 -0.428746 -2.164445
17.476313 -0.536335 -2.166195
17.473395 -0.643583 -2.166282
17.457417 -0.750283 -2.164831
17.438266 -0.856687 -2.163067
17.396440 -0.961667 -2.158570
17.348838 -1.065849 -2.153435
17.281826 -1.168214 -2.145966
17.210533 -1.269525 -2.138040
17.139173 -1.370047 -2.130180
17.081519 -1.470972 -2.124096
17.032435 -1.572087 -2.119152
17.001098 -1.674462 -2.116491
16.952560 -1.774775 -2.111765
16.871817 -1.871049 -2.103097
16.765596 -1.963479 -2.091319
16.635236 -2.051761 -2.076589
16.533045 -2.142225 -2.065435
16.443961 -2.233358 -2.055979
16.385049 -2.327835 -2.050361
16.353868 -2.425867 -2.048283
16.325436 -2.524120 -2.046623
16.304095 -2.623351 -2.045927
16.275633 -2.721325 -2.044412
16.221071 -2.814623 -2.039690
16.170193 -2.908111 -2.035498
16.099061 -2.997410 -2.028821
16.054069 -3.091072 -2.025503
16.016112 -3.185803 -2.023142
15.966084 -3.277820 -2.019325
15.921794 -3.370670 -2.016301
15.843595 -3.455820 -2.009046
15.771782 -3.541672 -2.002658
15.720442 -3.631608 -1.998931
15.667057 -3.720682 -1.995008
15.641868 -3.816240 -1.994745
15.631154 -3.915400 -1.996404
15.618216 -4.014163 -1.997860
15.618686 -4.116612 -2.001114
15.612291 -4.217544 -2.003572
15.605088 -4.318509 -2.006011
15.597342 -4.419576 -2.008463
15.584169 -4.519325 -2.010300
15.563747 -4.617118 -2.011283
15.540895 -4.714279 -2.012030
15.518870 -4.811778 -2.012963
15.484007 -4.905310 -2.012307
15.457172 -5.001376 -2.012770
15.430548 -5.097564 -2.013338
15.407153 -5.194905 -2.014407
15.391938 -5.295175 -2.016628
15.365468 -5.391732 -2.017456
15.341363 -5.489228 -2.018676
15.308510 -5.583664 -2.018823
15.272648 -5.677003 -2.018649
15.220640 -5.764211 -2.016412
15.181857 -5.856288 -2.015997
15.145629 -5.949329 -2.015996
15.115585 -6.044846 -2.016896
15.097760 -6.145438 -2.019511
15.077175 -6.245171 -2.021845
15.064653 -6.348556 -2.025351
15.048502 -6.450768 -2.028463
15.030540 -6.552531 -2.031424
15.006293 -6.651832 -2.033625
14.982090 -6.751397 -2.035920
14.953876 -6.849379 -2.037759
14.926999 -6.948188 -2.039868
14.896483 -7.045512 -2.041567
14.868545 -7.144265 -2.043708
14.835938 -7.240979 -2.045294
14.807303 -7.339842 -2.047517
14.783973 -7.441627 -2.050566
14.754268 -7.540496 -2.052825
14.729077 -7.641964 -2.055806
14.698749 -7.741065 -2.058164
14.659485 -7.835658 -2.059359
14.623080 -7.931941 -2.061043
14.583274 -8.026547 -2.062336
14.552268 -8.126218 -2.064964
14.522049 -8.226639 -2.067800
14.486313 -8.324218 -2.069945
14.437309 -8.414315 -2.070281
14.384727 -8.502339 -2.070183
14.327665 -8.587672 -2.069516
14.272614 -8.674154 -2.069213
14.219834 -8.762004 -2.069317
14.157388 -8.843834 -2.068087
14.095868 -8.926110 -2.067062
14.020864 -8.999615 -2.064123
13.937004 -9.067015 -2.059929
13.853191 -9.133955 -2.055786
13.781197 -9.208302 -2.053448
13.708684 -9.282022 -2.051091
13.660498 -9.372154 -2.052447
13.616390 -9.465290 -2.054508
13.592192 -9.572702 -2.059681
13.556494 -9.672543 -2.063226
13.521081 -9.773027 -2.066924
13.471169 -9.863355 -2.068507
13.405660 -9.942315 -2.067777
13.339666 -10.020825 -2.067043
13.263767 -10.091712 -2.064838
13.190418 -10.164294 -2.063090
13.131943 -10.248269 -2.063741
13.072390 -10.331479 -2.064305
13.019176 -10.419838 -2.065960
12.958193 -10.502117 -2.066469
12.892014 -10.580202 -2.066230
12.826950 -10.659188 -2.066245
12.774931 -10.749157 -2.068452
12.729211 -10.844785 -2.071784
12.697609 -10.953033 -2.077540
12.666127 -11.062147 -2.083456
12.630968 -11.168798 -2.088906
12.593599 -11.274199 -2.094128
12.549565 -11.374263 -2.098371
12.499994 -11.469822 -2.101811
12.435968 -11.552424 -2.102925
12.359581 -11.623557 -2.102029
12.274278 -11.686084 -2.099677
12.187055 -11.746443 -2.097046
12.107326 -11.813756 -2.095761
12.032621 -11.885858 -2.095415
11.964164 -11.964164 -2.096238
11.897311 -12.044216 -2.097434
11.823508 -12.117320 -2.097491
11.746307 -12.186914 -2.097022
11.660353 -12.247251 -2.095053
11.570334 -12.302989 -2.092404
11.480707 -12.358767 -2.089870
11.394103 -12.417475 -2.087936
11.311240 -12.480031 -2.086745
11.240350 -12.555789 -2.087840
11.180750 -12.644485 -2.091142
11.116820 -12.728727 -2.093753
11.051224 -12.811439 -2.096165
10.973095 -12.879816 -2.096297
10.876104 -12.925801 -2.092880
10.772667 -12.963507 -2.088243
10.661982 -12.991663 -2.082201
10.554283 -13.022559 -2.076734
10.463912 -13.074244 -2.074698
10.375554 -13.128159 -2.073112
10.301761 -13.200486 -2.074512
10.217646 -13.259653 -2.073919
10.115884 -13.295535 -2.069784
10.001921 -13.314501 -2.063143
9.873449 -13.312805 -2.053454
9.746553 -13.311643 -2.044012
9.635545 -13.330873 -2.037848
9.533759 -13.361982 -2.033622
9.448205 -13.415421 -2.032894
9.366942 -13.474911 -2.033161
9.277417 -13.522413 -2.031701
9.184034 -13.563964 -2.029438
9.085708 -13.597723 -2.026110
8.974470 -13.611305 -2.019891
8.860548 -13.619641 -2.013021
8.749829 -13.631712 -2.006832
8.641918 -13.647080 -2.001251
8.541889 -13.674028 -1.997479
8.443709 -13.703272 -1.994145
8.356675 -13.750228 -1.993479
8.272230 -13.801381 -1.993498
8.192720 -13.860897 -1.994796
8.118192 -13.929222 -1.997423
8.049085 -14.007509 -2.001529
7.981848 -14.089932 -2.006270
7.912991 -14.170425 -2.010780
7.844346 -14.252236 -2.015521
7.763762 -14.313031 -2.017344
7.680573 -14.369342 -2.018600
7.592757 -14.417141 -2.018732
7.507261 -14.469451 -2.019569
7.417049 -14.512723 -2.019218
7.323636 -14.549565 -2.018054
7.233378 -14.592522 -2.017818
7.135633 -14.620096 -2.015538
7.038149 -14.647698 -2.013352
6.934418 -14.661595 -2.009376
6.826307 -14.665159 -2.004086
6.718494 -14.668122 -1.998820
6.612703 -14.674314 -1.994097
6.520533 -14.710087 -1.993483
6.431593 -14.753126 -1.993930
6.356246 -14.828000 -1.998741
6.279886 -14.901704 -2.003444
6.200180 -14.968558 -2.007279
6.098108 -14.981484 -2.003957
5.965020 -14.915973 -1.990261
5.812442 -14.797147 -1.969610
5.641531 -14.625119 -1.942068
5.447486 -14.384313 -1.905616
5.212596 -14.023270 -1.853514
5.034229 -13.802145 -1.820170
5.091488 -14.229756 -1.872406
5.359903 -15.274759 -2.005546
5.570289 -16.191636 -2.121403
5.725781 -16.981637 -2.220263
5.853906 -17.720026 -2.312063
5.626729 -17.389877 -2.264439
5.373333 -16.961358 -2.204304
4.985858 -16.080310 -2.085788
4.225126 -15.267642 -1.962633
4.200815 -15.550363 -1.995625
4.072409 -15.450979 -1.979627
3.958380 -15.401180 -1.970097
3.865783 -15.433070 -1.971105
3.778559 -15.487425 -1.975049
3.703099 -15.593017 -1.985580
3.615521 -15.650805 -1.990076
3.517384 -15.663624 -1.988924
3.428069 -15.716364 -1.992912
3.333262 -15.745093 -1.993924
3.239872 -15.781240 -1.995947
3.151769 -15.845011 -2.001529
3.057884 -15.881699 -2.003755
2.964539 -15.922512 -2.006572
2.865695 -15.934342 -2.005809
2.761210 -15.913244 -2.000983
2.659779 -15.907535 -1.998175
2.554267 -15.874738 -1.992049
2.450201 -15.847347 -1.986688
2.349643 -15.840007 -1.983923
2.248035 -15.823354 -1.980072
2.150490 -15.833813 -1.979693
2.055064 -15.860367 -1.981399
1.964489 -15.927657 -1.988262
1.877317 -16.029881 -1.999547
1.789800 -16.139165 -2.011771
1.701158 -16.249374 -2.024169
1.607981 -16.326109 -2.032461
1.509504 -16.354384 -2.034790
1.407825 -16.348221 -2.032910
1.305549 -16.332308 -2.029896
1.205471 -16.342170 -2.030165
1.105030 -16.347116 -2.029899
1.005773 -16.370972 -2.032056
0.908226 -16.429698 -2.038616
0.809287 -16.473420 -2.043386
0.710651 -16.535277 -2.050479
0.611441 -16.600725 -2.058091
0.510743 -16.642407 -2.062832
0.409165 -16.667536 -2.065596
0.307181 -16.685699 -2.067575
0.204203 -16.639084 -2.061604
0.101801 -16.590787 -2.055504
0.000000 -16.552067 -2.050668
-0.101825 -16.594630 -2.055980
-0.205082 -16.710753 -2.070484
-0.310561 -16.869307 -2.090326
-0.408490 -16.640041 -2.062189
-0.513336 -16.726903 -2.073305
-0.595810 -16.176350 -2.005479
-0.716394 -16.668902 -2.067050
-0.223586 -4.551194 -0.564536
-1.024518 -18.533406 -2.299646
-1.087797 -17.706083 -2.197778
-1.159654 -17.155188 -2.130241
-1.283668 -17.402258 -2.161858
-1.399418 -17.506598 -2.175846
-1.493121 -17.338719 -2.156079
-1.591213 -17.239651 -2.144933
-1.690829 -17.167276 -2.137179
-1.784892 -17.049197 -2.123803
-1.874288 -16.901021 -2.106737
-1.961416 -16.747977 -2.089121
-2.049540 -16.617231 -2.074342
-2.138502 -16.504318 -2.061846
-2.221713 -16.358223 -2.045259
-2.308434 -16.248490 -2.033272
-2.395266 -16.147572 -2.022445
-2.476072 -16.014673 -2.007664
-2.552039 -15.860894 -1.990312
-2.623049 -15.687865 -1.970582
-2.697522 -15.546204 -1.954830
-2.774238 -15.425810 -1.941795
-2.860806 -15.365361 -1.936359
-2.956279 -15.353994 -1.937176
-3.019434 -15.179720 -1.917490
-3.076095 -14.983492 -1.895051
-3.121073 -14.742790 -1.866995
-3.115918 -14.285275 -1.811443
-1.208611 -5.382190 -0.683416
-2.086672 -9.032749 -1.148558
-3.649026 -15.365326 -1.956586
-3.674273 -15.059980 -1.920539
-3.744913 -14.950532 -1.909476
-3.852249 -14.988245 -1.917275
-3.982850 -15.111185 -1.936091
-4.102046 -15.184744 -1.948704
-4.204966 -15.194795 -1.953268
-4.316790 -15.234595 -1.961753
-4.440444 -15.312160 -1.975212
-4.562399 -15.379295 -1.987446
-4.699093 -15.490834 -2.005548
-4.838871 -15.606249 -2.024297
-4.986898 -15.741544 -2.045776
-5.138725 -15.881659 -2.068045
-5.284483 -15.996358 -2.087163
-5.350339 -15.868142 -2.074679
-5.322500 -15.471366 -2.027034
-5.554396 -15.829031 -2.078321
-5.848384 -16.345139 -2.150756
-5.847647 -16.032261 -2.114268
-5.833139 -15.692697 -2.074169
-5.952452 -15.717696 -2.082261
-6.099184 -15.811539 -2.099612
-6.228849 -15.857222 -2.110714
-6.304767 -15.765537 -2.103620
-6.377061 -15.666798 -2.095627
-6.461067 -15.598395 -2.091740
-6.525006 -15.483356 -2.081644
-6.585808 -15.363527 -2.070927
-6.667764 -15.294870 -2.067149
-6.731045 -15.184995 -2.057842
-6.813659 -15.120257 -2.054696
-6.865927 -14.990004 -2.042682
-6.895203 -14.813168 -2.024312
-6.956428 -14.708131 -2.015754
-7.002017 -14.572502 -2.003016
-7.060883 -14.466941 -1.994424
-7.151518 -14.427380 -1.994982
-7.248440 -14.400176 -1.997333
-7.389583 -14.458980 -2.011741
-7.549338 -14.550549 -2.030888
-7.689549 -14.600930 -2.044467
-7.777429 -14.550547 -2.044056
-7.846027 -14.464692 -2.038720
-7.953558 -14.450660 -2.043582
-8.083157 -14.475154 -2.054021
-8.239393 -14.544563 -2.071005
-8.407099 -14.630548 -2.090555
-8.551444 -14.672597 -2.104021
-8.705021 -14.727636 -2.119533
-8.823432 -14.721006 -2.126331
-8.920587 -14.678099 -2.127999
-9.026103 -14.648439 -2.131689
-9.114750 -14.591075 -2.131440
-9.176615 -14.491458 -2.125073
-9.298829 -14.487021 -2.132749
-9.413191 -14.469114 -2.138576
-9.532814 -14.458129 -2.145557
-9.704029 -14.523105 -2.163995
-9.833746 -14.523528 -2.173008
-9.971527 -14.534120 -2.183707
-10.119892 -14.558075 -2.196594
-10.238637 -14.537748 -2.202965
-10.357283 -14.516188 -2.209286
-10.480225 -14.499496 -2.216491
-10.585837 -14.457920 -2.220023
-10.707998 -14.438064 -2.227021
-10.818012 -14.400877 -2.231482
-10.924460 -14.358266 -2.235224
-11.018332 -14.298721 -2.236438
-11.088920 -14.209138 -2.233026
-11.188883 -14.157261 -2.235621
-11.269770 -14.081132 -2.234477
-11.376857 -14.037503 -2.238589
-11.486619 -13.996485 -2.243246
-11.583151 -13.938819 -2.245352
-11.705999 -13.912098 -2.252576
-11.832946 -13.889078 -2.260562
-11.949950 -13.853313 -2.266633
-12.056138 -13.804244 -2.270665
-12.158078 -13.749762 -2.273932
-12.235649 -13.667566 -2.272712
-12.290388 -13.560354 -2.267382
-12.351637 -13.461010 -2.263401
-12.353987 -13.298837 -2.248836
-12.190898 -12.962847 -2.204628
-12.057153 -12.664023 -2.166348
-12.367589 -12.831500 -2.207937
-12.778576 -13.096123 -2.266920
-12.672124 -12.828596 -2.234029
-12.702506 -12.702506 -2.225603
-12.902327 -12.744955 -2.246869
-13.138087 -12.819523 -2.274184
-13.245027 -12.766165 -2.279093
-13.341327 -12.701999 -2.282209
-13.455879 -12.654569 -2.288479
-13.528281 -12.567130 -2.287635
-13.592122 -12.471943 -2.285447
-13.658605 -12.379438 -2.283810
-13.719633 -12.282261 -2.281370
-13.796246 -12.199182 -2.281620
-13.884233 -12.125998 -2.283823
-13.953553 -12.036417 -2.283034
-14.025697 -11.949341 -2.282798
-14.080556 -11.847744 -2.279852
-14.140432 -11.750691 -2.277829
-14.208354 -11.660495 -2.277202
-14.262273 -11.559024 -2.274434
-14.346497 -11.482154 -2.276587
-14.423143 -11.399017 -2.277607
-14.473005 -11.294844 -2.274494
-14.543662 -11.207079 -2.274748
-14.608171 -11.114600 -2.274128
-14.682619 -11.029659 -2.275140
-14.778323 -10.960351 -2.279505
-14.878901 -10.894071 -2.284665
-14.982888 -10.829620 -2.290386
-15.072207 -10.754002 -2.293909
-15.150675 -10.670309 -2.295844
-15.223118 -10.582190 -2.296939
-15.278029 -10.481905 -2.295476
-15.310156 -10.366364 -2.290703
-15.355958 -10.260523 -2.288093
-15.385136 -10.144026 -2.283124
-15.449011 -10.050684 -2.283408
-15.535439 -9.971780 -2.287095
-15.582977 -9.867812 -2.285137
-15.662636 -9.784132 -2.287971
-15.717364 -9.684755 -2.287242
-15.756159 -9.575776 -2.284294
-15.867534 -9.510634 -2.291937
-15.933510 -9.417774 -2.293077
-15.985331 -9.316528 -2.292265
-16.102042 -9.252658 -2.300816
-16.166971 -9.158476 -2.302021
-16.273954 -9.087635 -2.309270
-16.386692 -9.019138 -2.317371
-16.452885 -8.924476 -2.318945
-16.598005 -8.871819 -2.331682
-16.625255 -8.755655 -2.327919
-16.640973 -8.633923 -2.322658
-16.729519 -8.549992 -2.327650
-16.723625 -8.417966 -2.319600
-16.810421 -8.332770 -2.324503
-16.945272 -8.270483 -2.336089
-16.985246 -8.161330 -2.334652
-17.094382 -8.085040 -2.342790
-17.131203 -7.974197 -2.341086
-17.118553 -7.840874 -2.332739
-17.174913 -7.739551 -2.333904
-17.198542 -7.623589 -2.330714
-17.286697 -7.536097 -2.336350
-17.376722 -7.448795 -2.342296
-17.480175 -7.366507 -2.350104
-17.624344 -7.300242 -2.363420
-17.699929 -7.204632 -2.367583
-17.759128 -7.102021 -2.369628
-17.814330 -6.997617 -2.371219
-17.823181 -6.875159 -2.366738
-17.858190 -6.763079 -2.365832
-17.910721 -6.657602 -2.367334
-17.952824 -6.548158 -2.367544
-18.010717 -6.444338 -2.369919
-18.086928 -6.346691 -2.374778
-18.191675 -6.258347 -2.383445
-18.296895 -6.169253 -2.392226
-18.381595 -6.072459 -2.398383
-18.460926 -5.973282 -2.403907
-18.511109 -5.864292 -2.405710
-18.548117 -5.751026 -2.405888
-18.636181 -5.653224 -2.412766
-18.698399 -5.547039 -2.416369
-18.775453 -5.444780 -2.421964
-18.946806 -5.368661 -2.439773
-19.049138 -5.271606 -2.448738
-19.168315 -5.178177 -2.459928
-19.309929 -5.089511 -2.474047
-19.339423 -4.970580 -2.473872
-19.373849 -4.852897 -2.474420
-19.373857 -4.726755 -2.470670
-19.345291 -4.594206 -2.463386
-19.451625 -4.493555 -2.473369
-19.548473 -4.389756 -2.482212
-19.708278 -4.298788 -2.499107
-19.873030 -4.207153 -2.516677
-19.879441 -4.081228 -2.514271
-19.742218 -3.926971 -2.493821
-19.320259 -3.719949 -2.437590
-18.822738 -3.504519 -2.372061
-18.863606 -3.392505 -2.374543
-19.120905 -3.317792 -2.404324
-19.562268 -3.270859 -2.457253
-19.837086 -3.191814 -2.489266
-20.054601 -3.100696 -2.514126
-20.257264 -3.004881 -2.537174
-20.287603 -2.882273 -2.538711
-20.231124 -2.747716 -2.529486
-20.265804 -2.625887 -2.531760
-20.255312 -2.498254 -2.528486
-20.321861 -2.379966 -2.534923
-20.411102 -2.263549 -2.544274
-20.439315 -2.139806 -2.546107
-20.552310 -2.024226 -2.558587
-20.605266 -1.901858 -2.563678
-20.660089 -1.779141 -2.569093
-20.750448 -1.658721 -2.579015
-20.789437 -1.533521 -2.582642
-20.852625 -1.409592 -2.589369
-20.882418 -1.282940 -2.592042
-21.003252 -1.161050 -2.606107
-21.047606 -1.034003 -2.610774
-21.013901 -0.903133 -2.605857
-21.172043 -0.779813 -2.624825
-21.107135 -0.647762 -2.616236
-21.017688 -0.515955 -2.604708
-21.117407 -0.388768 -2.616721
-21.188305 -0.260033 -2.625259
-21.290230 -0.130637 -2.637738
-20.974007 0.000000 -2.761280
-20.416527 0.125276 -2.687937
-20.717345 0.254253 -2.727696
-21.223703 0.390725 -2.794627
-20.962346 0.514597 -2.760577
-20.921649 0.642070 -2.755684
-20.906530 0.770033 -2.754263
-21.359337 0.917979 -2.814606
-21.237634 1.043338 -2.799359
-20.818787 1.150852 -2.745030
-20.310389 1.247796 -2.678955
-21.000320 1.419576 -2.771054
-5.850183 0.431535 -0.772284
-21.515195 1.719852 -2.841564
-21.353431 1.838848 -2.821637
-20.508345 1.892913 -2.711451
-20.595166 2.028447 -2.724524
-20.870755 2.184973 -2.762703
-20.833796 2.310424 -2.759636
-20.808227 2.436926 -2.758178
-20.889791 2.576510 -2.771033
-21.015613 2.723041 -2.789887
-21.204050 2.879855 -2.817195
-21.364862 3.035320 -2.840982
-21.499085 3.189088 -2.861378
-21.543961 3.330970 -2.870017
-21.535148 3.465035 -2.871622
-21.529553 3.599794 -2.873767
-21.474637 3.726203 -2.869434
-21.442320 3.856271 -2.868224
-21.416784 3.987493 -2.868027
-21.362521 4.113169 -2.864086
-21.332306 4.243259 -2.863472
-21.259211 4.364494 -2.857202
-21.186974 4.485317 -2.851138
-21.110410 4.604623 -2.844584
-21.039835 4.724653 -2.838927
-20.988750 4.848649 -2.835995
-20.936561 4.972108 -2.833012
-20.883793 5.095144 -2.830049
-20.840360 5.220238 -2.828451
-20.772662 5.338948 -2.823656
-20.648752 5.442385 -2.811299
-20.542249 5.549336 -2.801382
-20.367120 5.636341 -2.782163
-20.228743 5.731904 -2.768013
-20.169035 5.848912 -2.764702
-20.110029 5.965811 -2.761579
-20.121664 6.103840 -2.768268
-20.097088 6.231299 -2.770095
-20.020869 6.342582 -2.764902
-19.934304 6.450013 -2.758361
-19.821419 6.548112 -2.748248
-19.759440 6.662386 -2.745271
-19.710274 6.780780 -2.744169
-19.701705 6.913315 -2.748831
-19.718305 7.055322 -2.757135
-19.712500 7.189987 -2.762440
-19.699122 7.322369 -2.766810
-19.675374 7.451265 -2.769844
-19.626612 7.570820 -2.769467
-19.597360 7.698006 -2.771952
-19.580842 7.830539 -2.776360
-19.555516 7.959936 -2.779642
-19.542246 8.094663 -2.784763
-19.483574 8.210781 -2.783529
-19.399499 8.315889 -2.778755
-19.273272 8.402140 -2.768007
-19.082478 8.458681 -2.748008
-18.877338 8.506717 -2.725932
-18.685942 8.558791 -2.705827
-18.556348 8.637570 -2.694685
-18.508494 8.753866 -2.695485
-18.493001 8.885799 -2.701118
-18.425912 8.993139 -2.699328
-18.491058 9.165845 -2.717060
-18.822911 9.474657 -2.774312
-18.946414 9.682985 -2.801220
-18.658019 9.680438 -2.767311
-18.422094 9.701957 -2.741097
-18.387499 9.828323 -2.744871
-18.454486 10.010196 -2.763988
-18.459486 10.159991 -2.774022
-18.383758 10.265784 -2.772055
-18.277898 10.354301 -2.765621
-18.176628 10.444770 -2.759943
-18.084559 10.539995 -2.755732
-17.962906 10.617283 -2.747070
-17.844745 10.695729 -2.738984
-17.701067 10.757790 -2.727012
-17.538514 10.806915 -2.712134
-17.388407 10.862186 -2.699177
-17.252838 10.925239 -2.688489
-17.117802 10.987456 -2.677902
-17.017837 11.071317 -2.672840
-16.905051 11.146166 -2.665818
-16.779754 11.211873 -2.656858
-16.645667 11.270626 -2.646527
-16.494349 11.316395 -2.633459
-16.367065 11.377392 -2.624234
-16.253019 11.446667 -2.617160
-16.159189 11.529562 -2.613394
-16.095417 11.633755 -2.614576
-16.050108 11.751609 -2.618880
-15.984208 11.854697 -2.619947
-15.934363 11.969975 -2.623766
-15.839987 12.051825 -2.620353
-15.770100 12.152150 -2.621078
-15.684356 12.240192 -2.619261
-15.656557 12.373819 -2.627248
-15.563556 12.456221 -2.624418
-15.419906 12.497241 -2.613077
-15.719237 12.900445 -2.677165
-16.097451 13.376973 -2.755507
-16.337313 13.746638 -2.810951
-16.483450 14.043249 -2.850868
-16.459760 14.198286 -2.861784
-16.379877 14.305605 -2.863103
-16.336669 14.445523 -2.870990
-16.277801 14.572416 -2.876305
-16.232803 14.712555 -2.884251
-16.355793 15.007849 -2.922411
-16.349154 15.187587 -2.937821
-16.492868 15.510702 -2.980691
-16.302016 15.520810 -2.963355
-14.873279 14.335549 -2.719580
-17.556362 17.130666 -3.229341
-16.623481 16.828744 -3.114206
-15.828523 16.221860 -2.983871
-15.872050 16.467415 -3.011068
-15.940569 16.742903 -3.043499
-15.805561 16.806398 -3.037354
-15.536212 16.724442 -3.005257
-15.422454 16.807636 -3.003145
-15.241158 16.816026 -2.987878
-15.029291 16.788143 -2.966483
-14.871827 16.818782 -2.955716
-14.739995 16.877252 -2.950042
-14.666970 17.003095 -2.956252
-14.564770 17.095592 -2.956740
-14.472347 17.199788 -2.959346
-14.344203 17.261388 -2.954746
-14.181378 17.280059 -2.942991
-14.033503 17.315446 -2.934297
-13.852195 17.307770 -2.918538
-13.690787 17.322913 -2.906871
-13.521694 17.326450 -2.893487
-13.367636 17.347462 -2.883244
-13.214644 17.368306 -2.873178
-13.039168 17.357667 -2.858128
-12.889739 17.379801 -2.848696
-12.707455 17.355583 -2.831893
-12.519515 17.320875 -2.813642
-12.308394 17.250756 -2.789931
-12.065347 17.131476 -2.758615
-11.824865 17.010782 -2.727445
-11.584734 16.885470 -2.695905
-11.345764 16.756639 -2.664171
-11.077001 16.577904 -2.624897
-10.806563 16.389986 -2.584595
-10.540661 16.202159 -2.544729
-10.326708 16.088396 -2.516862
-10.123519 15.986783 -2.491201
-9.940867 15.913541 -2.470236
-9.799894 15.904223 -2.459409
-9.656888 15.889623 -2.447942
-9.699383 16.182443 -2.483838
-9.705895 16.420970 -2.511261
-9.317091 15.986296 -2.435998
-8.963797 15.599347 -2.368608
-0.673987 1.189754 -0.180021
-11.655767 20.872912 -3.147391
-11.355771 20.632074 -3.100510
-11.051644 20.374467 -3.051550
-11.020621 20.618132 -3.077858
-10.945408 20.783162 -3.092410
-10.745847 20.711484 -3.071876
-10.597240 20.735310 -3.065707
-10.455659 20.771827 -3.061564
-10.282943 20.744677 -3.048205
-10.100629 20.695032 -3.031746
-9.929241 20.664598 -3.018305
-9.763459 20.643099 -3.006358
-9.609484 20.644340 -2.997895
-9.458808 20.650901 -2.990364
-9.323107 20.688997 -2.987540
-9.171232 20.689967 -2.979498
-9.003314 20.652275 -2.966058
-8.802015 20.533547 -2.941195
-8.590140 20.383767 -2.912136
-8.406388 20.294817 -2.892004
-8.272088 20.322393 -2.888646
-8.178474 20.450877 -2.899722
-8.100128 20.621071 -2.916751
-8.026847 20.808818 -2.936285
-8.044807 21.242648 -2.990480
-7.887074 21.218329 -2.980188
-7.496424 20.552646 -2.880175
-7.168186 20.033738 -2.801241
-7.161425 20.408774 -2.847483
-7.279005 21.158508 -2.945800
-6.998368 20.755902 -2.883714
-6.822711 20.652640 -2.863498
-6.696858 20.697198 -2.863924
-6.667227 21.045637 -2.906423
-6.580213 21.222401 -2.925203
-6.444035 21.243137 -2.922556
-6.314949 21.286931 -2.923195
-6.208291 21.408298 -2.934576
-6.095882 21.513275 -2.943783
-5.977358 21.599397 -2.950493
-5.857347 21.682431 -2.956870
-5.740926 21.781438 -2.965512
-5.621649 21.872587 -2.973170
-5.498184 21.949980 -2.979048
-5.366717 21.996907 -2.980892
-5.228617 22.016673 -2.979166
-5.087678 22.023454 -2.975804
-4.947580 22.032575 -2.972878
-4.814112 22.070836 -2.973999
-4.683225 22.121819 -2.976941
-4.555960 22.191836 -2.982545
-4.424617 22.244053 -2.985858
-4.286597 22.263250 -2.984848
-4.145018 22.262853 -2.981328
-3.998069 22.230768 -2.973690
-3.853709 22.209470 -2.967623
-3.714992 22.218530 -2.965732
-3.581464 22.258755 -2.968112
-3.450761 22.318742 -2.973231
-3.316112 22.355414 -2.975350
-3.175784 22.353548 -2.972452
-3.031261 22.318836 -2.965307
-2.884233 22.259640 -2.955035
-2.739434 22.210742 -2.946257
-2.598596 22.188677 -2.941160
-2.461713 22.198007 -2.940339
-2.327189 22.229190 -2.942522
-2.191656 22.252261 -2.943741
-2.053997 22.253578 -2.942192
-1.915199 22.240052 -2.938795
-1.776341 22.221875 -2.934897
-1.638082 22.206934 -2.931541
-1.503342 22.239506 -2.934568
-1.369929 22.298339 -2.941167
-1.236719 22.372108 -2.949841
-1.101483 22.421211 -2.955368
-0.963998 22.430097 -2.955704
-0.825140 22.402698 -2.951371
-0.686078 22.355659 -2.944564
-0.547761 22.313309 -2.938488
-0.410576 22.301987 -2.936610
-0.273786 22.308933 -2.937248
-0.136971 22.322459 -2.938863
0.000000 22.311210 -2.937327
