2.134770 -21.674682 -2.867333
2.019681 -21.881793 -2.893038
1.914561 -22.232640 -2.937815
1.819263 -22.758822 -3.005813
1.753756 -23.775096 -3.138555
1.466884 -21.700159 -2.863400
1.298340 -21.133097 -2.787471
1.378353 -24.934254 -3.287669
0.953636 -22.188997 -2.923934
0.908386 -24.662848 -3.249127
0.679665 -22.146698 -2.917041
0.507030 -20.654101 -2.719983
0.403792 -21.933493 -2.888088
0.270027 -22.002665 -2.896924
0.132135 -21.534346 -2.835104
0.000000 -21.474563 -2.827180
-0.131681 -21.460449 -2.825375
-0.265263 -21.614475 -2.845814
-0.403124 -21.897212 -2.883311
-0.541985 -22.078038 -2.907504
-0.681720 -22.213642 -2.925858
-0.821518 -22.304367 -2.938417
-0.961128 -22.363305 -2.946903
-1.098780 -22.366181 -2.948115
-1.232018 -22.287064 -2.938627
-1.362431 -22.176293 -2.925069
-1.492230 -22.075117 -2.912877
-1.622078 -21.989976 -2.902901
-1.759384 -22.009735 -2.906880
-1.907200 -22.147168 -2.926521
-2.053297 -22.245997 -2.941190
-2.193593 -22.271926 -2.946342
-2.332159 -22.276668 -2.948807
-2.474586 -22.314090 -2.955715
-2.612175 -22.304622 -2.956528
-2.742946 -22.239219 -2.950034
-2.869677 -22.147303 -2.940122
-2.996920 -22.065986 -2.931713
-3.119653 -21.958459 -2.919915
-3.244811 -21.874739 -2.911375
-3.375701 -21.833272 -2.908558
-3.505053 -21.783863 -2.904787
-3.642190 -21.783117 -2.907613
-3.771853 -21.737723 -2.904588
-3.902390 -21.698760 -2.902527
-4.029597 -21.642927 -2.898311
-4.156412 -21.587112 -2.894197
-4.299109 -21.613082 -2.901161
-4.434092 -21.598220 -2.902764
-4.572623 -21.599375 -2.906635
-4.718264 -21.631412 -2.914788
-4.847430 -21.586585 -2.912700
-4.979847 -21.556677 -2.912733
-5.110941 -21.521160 -2.912116
-5.227295 -21.425451 -2.903451
-5.343739 -21.333401 -2.895366
-5.458427 -21.237529 -2.886846
-5.575982 -21.155628 -2.880309
-5.691112 -21.067070 -2.872952
-5.806759 -20.982929 -2.866283
-5.921169 -20.896689 -2.859412
-6.020205 -20.759712 -2.845670
-6.111208 -20.600144 -2.828884
-6.194581 -20.420798 -2.809422
-6.260136 -20.190093 -2.782914
-6.342881 -20.021813 -2.765032
-6.416944 -19.832101 -2.744219
-6.504928 -19.690697 -2.730124
-6.595466 -19.560967 -2.717697
-6.689923 -19.446173 -2.707400
-6.809314 -19.405321 -2.707478
-6.934305 -19.380083 -2.709843
-7.054004 -19.339681 -2.710195
-7.189328 -19.341207 -2.716539
-7.321441 -19.332568 -2.721584
-7.448677 -19.309970 -2.724786
-7.579835 -19.296524 -2.729400
-7.691856 -19.234055 -2.727189
-7.798431 -19.158740 -2.723243
-7.904674 -19.083572 -2.719402
-8.006522 -18.998884 -2.714284
-8.111280 -18.922183 -2.710385
-8.216549 -18.847554 -2.706866
-8.310707 -18.748656 -2.699935
-8.425672 -18.697490 -2.699962
-8.532106 -18.627683 -2.697390
-8.635954 -18.552876 -2.694181
-8.771983 -18.546800 -2.701063
-8.911025 -18.545501 -2.708786
-9.043476 -18.529047 -2.714437
-9.196490 -18.552879 -2.726144
-9.298883 -18.473707 -2.722843
-9.394076 -18.381113 -2.717640
-9.495931 -18.302403 -2.714567
-9.566320 -18.164547 -2.702776
-9.666219 -18.084224 -2.699598
-9.757182 -17.988036 -2.694126
-9.843268 -17.884038 -2.687546
-9.929472 -17.781498 -2.681242
-9.984197 -17.624572 -2.666767
-10.046094 -17.482826 -2.654596
-10.088896 -17.310561 -2.637790
-10.148469 -17.169741 -2.625771
-10.224565 -17.058655 -2.618328
-10.254720 -16.873307 -2.599488
-10.305857 -16.725348 -2.586387
-10.372380 -16.604315 -2.577464
-10.415905 -16.448512 -2.563151
-10.470216 -16.311973 -2.551838
-10.486896 -16.119516 -2.531749
-10.477423 -15.890788 -2.505875
-10.447113 -15.635209 -2.475634
-10.470346 -15.463728 -2.458608
-10.620441 -15.479953 -2.471502
-10.887206 -15.661902 -2.511171
-11.085488 -15.740183 -2.534580
-10.525593 -14.752082 -2.385825
-10.180545 -14.084885 -2.287981
-11.751055 -16.049352 -2.618756
-0.835842 -0.933659 -0.164978
-11.927309 -12.839526 -2.307167
-11.757364 -12.501861 -2.259412
-10.867578 -11.414574 -2.074923
-11.046302 -10.778459 -2.031872
-13.493243 -13.005407 -2.467240
-11.938912 -11.366789 -2.170237
-12.089039 -11.369125 -2.184804
-12.024704 -6.238840 -1.783474
-14.341151 -7.329364 -2.120334
-14.403927 -7.250327 -2.122997
-13.921320 -6.900669 -2.045587
-13.839640 -6.754716 -2.027456
-13.526912 -6.499617 -1.975763
-10.398951 -4.457668 -1.489530
-12.656008 -5.333503 -1.808106
-15.131322 -5.309571 -2.111159
-15.171457 -5.219324 -2.112251
-14.676241 -4.948459 -2.039039
-15.130275 -4.998368 -2.097819
-15.652278 -5.064506 -2.165846
-15.902158 -5.037780 -2.196104
-16.154822 -5.008961 -2.226710
-16.265523 -4.934092 -2.237754
-16.371472 -4.856736 -2.248187
-16.473416 -4.777202 -2.258119
-16.551910 -4.690057 -2.264891
-16.640200 -4.604964 -2.273063
-16.735757 -4.521040 -2.282284
-16.814160 -4.431702 -2.289224
-16.882946 -4.339221 -2.294921
-16.895506 -4.232104 -2.293056
-16.879848 -4.118277 -2.287458
-16.858724 -4.003685 -2.281223
-16.850683 -3.892707 -2.276860
-16.863553 -3.786837 -2.275417
-16.869918 -3.679683 -2.273186
-16.864636 -3.570271 -2.269480
-16.855855 -3.460489 -2.265398
-16.876135 -3.356872 -2.265313
-16.896743 -3.253322 -2.265357
-16.934381 -3.152935 -2.267766
-16.978288 -3.053442 -2.271094
-17.029677 -2.954929 -2.275500
-17.078580 -2.855580 -2.279650
-17.108414 -2.752767 -2.281335
-17.120735 -2.647083 -2.280769
-17.119572 -2.539449 -2.278496
-17.092849 -2.428393 -2.272913
-17.074561 -2.319003 -2.268546
-17.048490 -2.209012 -2.263239
-17.018275 -2.099004 -2.257476
-17.021689 -1.993471 -2.256263
-17.005172 -1.885838 -2.252498
-16.987088 -1.778390 -2.248615
-17.001523 -1.674504 -2.249123
-16.990536 -1.568220 -2.246354
-16.991626 -1.463231 -2.245269
-16.992939 -1.358358 -2.244299
-16.986971 -1.253034 -2.242453
-17.004779 -1.149486 -2.243831
-17.071338 -1.048801 -2.251722
-17.131911 -0.947044 -2.258902
-17.195613 -0.844766 -2.266576
-17.194608 -0.738988 -2.265803
-17.288189 -0.636762 -2.277577
-17.250354 -0.529400 -2.272121
-17.327393 -0.425364 -2.281882
-17.184673 -0.316367 -2.262788
-17.102116 -0.209885 -2.251706
-16.982186 -0.104203 -2.235789
-16.540577 0.507618 -2.307316
-18.078677 0.665877 -2.522394
-15.380170 0.661007 -2.146416
-14.933450 0.733633 -2.084662
-16.791916 1.238646 -2.347635
-16.938812 1.354031 -2.369289
-15.660218 1.348577 -2.191564
-14.480426 1.336538 -2.027568
-14.072551 1.386025 -1.971610
-10.264742 1.074623 -1.439021
-7.630744 0.846234 -1.070467
-14.479224 1.695714 -2.032616
-15.979936 1.970937 -2.244944
-15.274632 1.979169 -2.147524
-14.748545 2.003092 -2.075249
-14.557610 2.068209 -2.050130
-14.398835 2.135865 -2.029577
-14.062756 2.174281 -1.984048
-13.906360 2.237552 -1.963883
-14.132218 2.362941 -1.997789
-14.755890 2.560390 -2.088136
-15.356986 2.761861 -2.175555
-15.358978 2.859617 -2.178282
-15.376606 2.960633 -2.183318
-15.427065 3.068634 -2.193115
-15.538926 3.190125 -2.211758
-15.620436 3.306872 -2.226206
-15.634901 3.410300 -2.231208
-15.799940 3.547995 -2.257824
-15.777383 3.644762 -2.257754
-15.757429 3.742144 -2.258142
-15.884344 3.875398 -2.279695
-15.937546 3.992147 -2.290803
-16.139778 4.148213 -2.323486
-16.185339 4.265964 -2.333769
-16.103414 4.350217 -2.325761
-16.044284 4.440051 -2.321112
-15.926199 4.512759 -2.307992
-15.942305 4.623183 -2.314393
-15.909993 4.719835 -2.313863
-15.887939 4.819554 -2.314913
-16.057970 4.978931 -2.344094
-16.514670 5.231823 -2.415402
-16.838406 5.448293 -2.467594
-16.955753 5.601424 -2.489781
-17.118778 5.772022 -2.518873
-16.247369 5.589462 -2.395654
-14.881230 5.221814 -2.198902
-0.966110 0.345680 -0.143066
-16.015859 6.749414 -2.423261
-16.125391 6.912392 -2.446205
-15.231618 6.640190 -2.316758
-15.691165 6.955415 -2.393102
-14.435545 6.505107 -2.207650
-13.809758 6.325334 -2.117844
-10.368699 4.826400 -1.594640
-14.529419 6.871904 -2.240975
-15.571648 7.482103 -2.408761
-15.275566 7.455549 -2.369992
-15.366908 7.617234 -2.391370
-15.577796 7.841204 -2.431630
-15.805624 8.077815 -2.474883
-15.927510 8.263753 -2.501861
-16.003110 8.428004 -2.521812
-16.017944 8.561770 -2.532380
-15.969320 8.662177 -2.533048
-15.852267 8.724994 -2.522926
-15.691219 8.762227 -2.505804
-15.458088 8.756899 -2.477109
-15.186302 8.726450 -2.442090
-14.937841 8.706033 -2.410681
-14.708605 8.693773 -2.382250
-14.515326 8.700152 -2.359548
-14.257540 8.664993 -2.326243
-14.413531 8.881357 -2.360541
-13.540849 8.458695 -2.226078
-14.675791 9.293342 -2.421988
-14.828690 12.950853 -2.745061
-14.230816 12.583446 -2.648627
-13.559076 12.138525 -2.537418
-13.788335 12.497018 -2.594623
-13.795135 12.658225 -2.610469
-13.689244 12.716657 -2.605148
-13.591763 12.782361 -2.601474
-13.477036 12.831205 -2.594535
-13.398922 12.914496 -2.594704
-13.320403 12.997418 -2.594894
-13.267357 13.105533 -2.600177
-13.240784 13.240784 -2.610842
-13.168889 13.331495 -2.612747
-13.093250 13.418615 -2.614026
-12.978344 13.465165 -2.607532
-12.851900 13.498773 -2.598720
-12.763813 13.572040 -2.597699
-12.668226 13.637109 -2.595226
-12.568598 13.697458 -2.591985
-12.450696 13.737226 -2.585005
-12.289878 13.728141 -2.569057
-12.159220 13.751052 -2.559334
-12.048759 13.795795 -2.553853
-11.934154 13.835002 -2.547508
-11.832802 13.888909 -2.544017
-11.553765 13.731174 -2.502092
-11.260856 13.550979 -2.456620
-9.854981 12.008330 -2.165954
-9.344325 11.529634 -2.069230
-2.180564 2.724528 -0.486562
-0.951282 1.203655 -0.213909
-4.012999 5.142184 -0.909458
-10.625287 13.788658 -2.427115
-10.163430 13.358027 -2.340293
-9.775173 13.012655 -2.269233
-9.839030 13.266396 -2.302911
-9.868537 13.478247 -2.329131
-9.706300 13.428763 -2.310244
-9.480766 13.287711 -2.275927
-9.301333 13.206878 -2.252264
-9.158678 13.175310 -2.237255
-9.096434 13.258619 -2.241881
-9.031763 13.339074 -2.246072
-8.974989 13.432021 -2.252407
-8.932597 13.547798 -2.262588
-8.940773 13.742955 -2.285976
-8.986344 14.000188 -2.319548
-9.016624 14.238806 -2.349871
-9.004662 14.414845 -2.369760
-8.939733 14.508269 -2.376057
-8.853482 14.567684 -2.376845
-8.708646 14.529498 -2.361852
-8.518192 14.411548 -2.334138
-8.297817 14.237423 -2.297647
-8.079143 14.059819 -2.260942
-7.904531 13.953449 -2.235995
-7.753129 13.884146 -2.217224
-7.640210 13.881346 -2.209249
-7.524936 13.872738 -2.200489
-7.395812 13.836590 -2.187516
-7.314019 13.887874 -2.188487
-7.179062 13.836883 -2.173469
-7.106218 13.904528 -2.177205
-7.049319 14.004593 -2.186059
-7.027292 14.176768 -2.206163
-7.074083 14.493986 -2.248730
-7.065715 14.705068 -2.274710
-7.081582 14.972746 -2.309352
-7.024630 15.091222 -2.320934
-6.954157 15.182631 -2.328385
-6.902847 15.318174 -2.342632
-6.857390 15.470023 -2.359375
-6.891395 15.807845 -2.404403
-6.955908 16.226906 -2.461605
-6.959276 16.513847 -2.498609
-6.982723 16.857785 -2.544117
-6.967816 17.118132 -2.576907
-6.886428 17.220021 -2.585835
-6.816564 17.353411 -2.599536
-6.743224 17.481150 -2.612424
-6.667073 17.604683 -2.624722
-6.587455 17.722007 -2.636138
-6.516840 17.866961 -2.651702
-6.479072 18.107794 -2.681494
-6.399336 18.236956 -2.694756
-6.278686 18.250795 -2.691057
-6.159387 18.267634 -2.687917
-6.007161 18.183936 -2.670127
-5.868871 18.138236 -2.658079
-5.756970 18.172337 -2.657850
-5.603289 18.071640 -2.638044
-5.466466 18.020522 -2.625636
-5.372481 18.109984 -2.633818
-5.286543 18.229795 -2.646475
-5.225313 18.440908 -2.672418
-5.154534 18.626092 -2.694620
-5.027181 18.609362 -2.687687
-4.851376 18.406429 -2.654028
-4.683370 18.221954 -2.623236
-4.573813 18.259684 -2.624578
-4.485373 18.384489 -2.638511
-4.380899 18.447100 -2.643590
-4.316944 18.687112 -2.674138
-4.248565 18.919717 -2.703643
-4.160607 19.074771 -2.722101
-4.048543 19.123815 -2.725503
-3.914088 19.065310 -2.713691
-3.787575 19.041427 -2.706933
-3.657571 18.996287 -2.697275
-3.532010 18.970392 -2.690470
-3.411094 18.966966 -2.686965
-3.293166 18.978981 -2.685754
-3.192141 19.091471 -2.698850
-3.085507 19.176389 -2.708127
-2.966346 19.185652 -2.706814
-2.848329 19.201873 -2.706586
-2.723475 19.169864 -2.699667
-2.595400 19.109640 -2.688893
-2.468137 19.048340 -2.678086
-2.340348 18.975038 -2.665711
-2.228673 19.030005 -2.671462
-2.116395 19.084170 -2.677192
-1.996383 19.069346 -2.673343
-1.875768 19.044996 -2.668266
-1.744931 18.905070 -2.647112
-1.612902 18.729658 -2.621116
-1.483432 18.557609 -2.595716
-1.359971 18.436683 -2.577586
-1.249705 18.487350 -2.583548
-1.140685 18.566946 -2.593645
-1.027122 18.580518 -2.594611
-0.908121 18.485229 -2.580478
-0.785389 18.274263 -2.550307
-0.662252 17.980249 -2.508661
-0.545333 17.769512 -2.478745
-0.436917 17.798041 -2.482304
-0.331179 17.989223 -2.508638
-0.222819 18.155999 -2.531657
-0.111558 18.180834 -2.534976
0.000000 18.134962 -2.528533
0.110660 18.034521 -2.514576
0.220121 17.936137 -2.500999
0.330365 17.945007 -2.502472
0.443938 18.084050 -2.522194
0.560482 18.263125 -2.547601
0.678371 18.417881 -2.569721
0.792483 18.439315 -2.573342
0.905255 18.426891 -2.572335
1.010445 18.278832 -2.552484
1.112598 18.109768 -2.529781
1.232748 18.236500 -2.548493
1.355541 18.376617 -2.569188
1.496518 18.721306 -2.618612
1.630501 18.934024 -2.649715
1.746481 18.921864 -2.649464
1.857842 18.862982 -2.642765
1.962223 18.743055 -2.627601
2.075343 18.713997 -2.625263
2.204417 18.822892 -2.642387
2.338110 18.956891 -2.663162
2.485010 19.178557 -2.696394
2.620731 19.296146 -2.715136
2.736474 19.261358 -2.712552
2.843939 19.172278 -2.702414
2.929881 18.949809 -2.673540
3.008684 18.698932 -2.640700
3.107948 18.587937 -2.627668
3.234561 18.641236 -2.637959
3.378529 18.785891 -2.661313
3.514612 18.876948 -2.677217
3.633288 18.870169 -2.679367
3.746347 18.834157 -2.677467
3.847213 18.739564 -2.667326
3.952141 18.668447 -2.660605
4.074735 18.681078 -2.665918
4.196523 18.687964 -2.670525
4.330013 18.743684 -2.682234
4.454978 18.759029 -2.688291
4.558908 18.685889 -2.681768
4.675498 18.665636 -2.682928
4.782050 18.605896 -2.678508
4.901525 18.596695 -2.681463
5.037725 18.648396 -2.693324
5.169732 18.681012 -2.702565
5.315747 18.760064 -2.718669
5.449566 18.791955 -2.728085
5.557152 18.732489 -2.724352
5.654498 18.640381 -2.715951
5.727096 18.470939 -2.696332
5.809039 18.336698 -2.681889
5.913998 18.277704 -2.678517
6.015340 18.208693 -2.673763
6.143317 18.219973 -2.680904
6.266656 18.215826 -2.685901
6.384919 18.195873 -2.688685
6.500013 18.166320 -2.690161
6.586025 18.056642 -2.679853
6.678027 17.965670 -2.672383
6.770230 17.877072 -2.665333
6.851882 17.762837 -2.654520
6.955408 17.706876 -2.652485
7.073213 17.687092 -2.655973
7.189374 17.662444 -2.658846
7.297761 17.618352 -2.658899
7.368296 17.484421 -2.645460
7.434017 17.342249 -2.630801
7.500446 17.204919 -2.616901
7.547005 17.025769 -2.596647
7.642439 16.959411 -2.593629
7.763932 16.950569 -2.599514
7.905589 16.983812 -2.612002
8.053569 17.027841 -2.626324
8.142533 16.946128 -2.621377
8.215792 16.833217 -2.611660
8.202067 16.546744 -2.574974
8.135794 16.163046 -2.522985
8.208142 16.060630 -2.514813
8.347530 16.088980 -2.527224
8.473879 16.090219 -2.535539
8.572845 16.038664 -2.535656
8.656929 15.959646 -2.531514
8.797062 15.983206 -2.543765
8.941394 16.012067 -2.557042
9.167160 16.182301 -2.593161
9.369721 16.305761 -2.622109
9.562296 16.407020 -2.647778
10.058747 17.017944 -2.756278
9.833801 16.406705 -2.667003
9.645579 15.871015 -2.589495
10.210468 16.570541 -2.713800
11.008527 16.696299 -2.788412
10.317241 15.440842 -2.589265
10.000699 14.770102 -2.487033
10.695456 15.589292 -2.635971
10.915289 15.702301 -2.666354
11.241493 15.961694 -2.722063
11.894772 16.671047 -2.855427
11.534442 15.958017 -2.745369
10.991696 15.012234 -2.594214
11.259547 15.181742 -2.635395
12.201373 15.245133 -2.722565
12.153954 14.996337 -2.691401
11.511468 14.026764 -2.530021
11.794057 14.192618 -2.572941
12.116716 13.043418 -2.482243
12.067597 12.831739 -2.456004
11.294505 11.862990 -2.283807
11.445243 11.874557 -2.299510
11.831109 12.125111 -2.362044
11.782700 11.928190 -2.337723
11.799311 11.799311 -2.326610
11.707812 11.565010 -2.294532
11.539456 11.259654 -2.247955
11.432383 11.019055 -2.213883
11.407046 10.860410 -2.196031
11.443189 10.761737 -2.190235
11.544686 10.724465 -2.197025
11.584043 10.629357 -2.192061
11.519790 10.440929 -2.167739
11.339825 10.151780 -2.122112
11.173485 9.880034 -2.079600
11.238215 9.815059 -2.080399
11.565071 9.976099 -2.129534
11.919961 10.155337 -2.183367
12.163612 10.234778 -2.216451
12.363409 10.273986 -2.241328
12.486584 10.247474 -2.252217
12.556376 10.176460 -2.253500
12.586733 10.073734 -2.247812
12.546332 9.915720 -2.229690
12.516867 9.768259 -2.213760
12.629971 9.732424 -2.223160
12.846928 9.774562 -2.250750
13.243090 9.948277 -2.309418
13.554362 10.052600 -2.352899
13.320848 9.753292 -2.301931
13.120211 9.483279 -2.257162
14.334369 10.227555 -2.455199
14.845948 8.410126 -2.379015
13.901159 7.762629 -2.219941
12.910109 7.105647 -2.054674
13.115661 7.114278 -2.080402
13.118232 7.011841 -2.073946
12.753437 6.716570 -2.009720
12.228036 6.344336 -1.920755
11.776052 6.018413 -1.843923
11.420571 5.748632 -1.782704
11.256632 5.579808 -1.751737
11.256209 5.493820 -1.746392
11.372359 5.464364 -1.759177
11.503046 5.440536 -1.774196
11.609055 5.403759 -1.785399
11.703320 5.360515 -1.794803
11.752044 5.295837 -1.797258
11.803386 5.232081 -1.800167
11.860368 5.170501 -1.803984
11.881696 5.093269 -1.802441
11.903210 5.016259 -1.801002
11.905533 4.931433 -1.796741
11.898330 4.843132 -1.791135
11.911101 4.763347 -1.788624
11.924358 4.683987 -1.786266
11.952606 4.610629 -1.786225
11.996509 4.543200 -1.788587
12.031155 4.472106 -1.789627
12.080301 4.406199 -1.792882
12.147295 4.346371 -1.798833
12.211940 4.285162 -1.804478
12.295515 4.229935 -1.812958
12.355150 4.165846 -1.817948
12.380557 4.089984 -1.817960
12.385808 4.007595 -1.815086
12.367802 3.918101 -1.808890
12.358018 3.831725 -1.803986
12.383072 3.756364 -1.804245
12.408387 3.681054 -1.804608
12.457049 3.612477 -1.808428
12.488673 3.538721 -1.809832
12.503089 3.460071 -1.808811
12.500688 3.376968 -1.805432
12.487164 3.291238 -1.800528
12.489516 3.210030 -1.797993
12.538046 3.140617 -1.802171
12.596906 3.073342 -1.807887
12.693703 3.014557 -1.819090
12.787204 2.953995 -1.829858
12.872310 2.890574 -1.839464
12.964445 2.827817 -1.850115
13.017228 2.755768 -1.855200
13.020359 2.673066 -1.853274
13.028567 2.591543 -1.852144
13.031908 2.509181 -1.850395
13.117889 2.442359 -1.860441
13.325871 2.396577 -1.887816
13.620502 2.363381 -1.927465
13.945039 2.331644 -1.971329
14.166160 2.279354 -2.000573
14.240727 2.201798 -2.009157
14.158166 2.100165 -1.995654
14.009223 1.990300 -1.972901
13.873908 1.884303 -1.952180
13.724243 1.778282 -1.929549
13.376081 1.649782 -1.879141
12.870573 1.507319 -1.806791
12.390979 1.374134 -1.738248
12.214872 1.278783 -1.712411
12.561677 1.237217 -1.759932
13.191516 1.217572 -1.847093
13.786116 1.187189 -1.929293
14.230081 1.137504 -1.990410
14.459586 1.066603 -2.021558
14.523764 0.981775 -2.029650
14.381501 0.883547 -2.008974
14.111648 0.780085 -1.970572
13.872225 0.681499 -1.936518
13.656030 0.586907 -1.905799
13.526741 0.498219 -1.887294
13.489283 0.413976 -1.881678
13.517314 0.331831 -1.885268
13.603943 0.250447 -1.897100
13.684947 0.167948 -1.908217
13.737185 0.084291 -1.915393
13.798377 -0.000000 -1.923889
13.826293 -0.084838 -1.927817
13.890831 -0.170475 -1.936925
13.962145 -0.257041 -1.947053
13.996077 -0.343584 -1.952042
14.033695 -0.430683 -1.957620
14.022987 -0.516497 -1.956532
14.012982 -0.602248 -1.955615
14.070924 -0.691260 -1.964256
14.186073 -0.784199 -1.980964
14.340961 -0.881056 -2.003311
14.479654 -0.978793 -2.023486
14.572912 -1.074963 -2.037402
14.609568 -1.167839 -2.043490
14.611549 -1.258271 -2.044808
14.595090 -1.347121 -2.043623
14.542545 -1.432316 -2.037458
14.455641 -1.513371 -2.026545
14.329837 -1.589149 -2.010238
14.136429 -1.655568 -1.984494
13.935876 -1.718826 -1.957784
13.769855 -1.784192 -1.935962
13.663777 -1.855763 -1.922612
13.605030 -1.932876 -1.915979
13.556912 -2.010978 -1.910904
13.480556 -2.084265 -1.901908
13.393448 -2.155024 -1.891449
13.385673 -2.238117 -1.892255
13.451052 -2.333979 -1.903485
13.580604 -2.442389 -1.923903
13.666083 -2.544425 -1.938188
13.740178 -2.645553 -1.950962
13.760149 -2.737064 -1.956146
13.805363 -2.834226 -1.965008
13.920811 -2.947058 -1.983977
13.987773 -3.051027 -1.996151
14.073807 -3.160379 -2.011158
14.135151 -3.265387 -2.022750
14.159585 -3.362681 -2.029161
14.197712 -3.463901 -2.037632
14.256589 -3.571090 -2.049188
14.340441 -3.685751 -2.064453
14.429280 -3.803121 -2.080562
14.371556 -3.882369 -2.075635
14.221931 -3.935738 -2.057474
14.162405 -4.012980 -2.052386
14.298433 -4.146469 -2.075747
14.639904 -4.343052 -2.129148
14.970708 -4.541315 -2.181270
15.252070 -4.729054 -2.226451
15.431784 -4.888766 -2.257022
15.422653 -4.990207 -2.260122
15.321717 -5.061612 -2.249840
15.104320 -5.092797 -2.222464
14.900067 -5.125960 -2.196996
14.799269 -5.193053 -2.186791
14.764135 -5.282692 -2.186348
14.741540 -5.376866 -2.187847
14.733727 -5.476680 -2.191633
14.705234 -5.569022 -2.192437
14.690396 -5.666711 -2.195367
14.649503 -5.754447 -2.194491
14.587466 -5.833647 -2.190519
14.586192 -5.937208 -2.195757
14.650649 -6.068498 -2.211024
14.807757 -6.240295 -2.240471
14.985601 -6.423804 -2.273300
15.130393 -6.596061 -2.301361
15.195893 -6.735876 -2.317567
15.158678 -6.830973 -2.318240
15.036006 -6.886997 -2.305899
14.834312 -6.905045 -2.281423
14.569593 -6.890904 -2.247171
14.375719 -6.907464 -2.223764
14.287206 -6.973159 -2.216649
14.260493 -7.068794 -2.219192
14.227774 -7.161660 -2.220897
14.140035 -7.226579 -2.214081
14.023384 -7.275826 -2.202765
13.866155 -7.302581 -2.185065
13.700404 -7.323019 -2.165985
13.516220 -7.331551 -2.143938
13.336609 -7.340390 -2.122553
13.261400 -7.405377 -2.117775
13.350410 -7.562914 -2.139360
13.501770 -7.758473 -2.171203
13.642852 -7.951291 -2.201694
13.706600 -8.101520 -2.219963
13.698562 -8.210602 -2.226779
13.682252 -8.315362 -2.232379
13.584064 -8.370254 -2.224697
13.411180 -8.377693 -2.204761
13.153321 -8.329248 -2.170731
12.810947 -8.223002 -2.122515
12.402295 -8.068578 -2.062973
12.001768 -7.913239 -2.004389
11.605118 -7.754292 -1.946055
11.313753 -7.660437 -1.905043
11.162644 -7.658434 -1.887476
11.085790 -7.706170 -1.882440
11.107531 -7.822806 -1.894247
11.151852 -7.956833 -1.910096
11.126762 -8.042415 -1.914215
11.189313 -8.192620 -1.933588
11.268115 -8.357004 -1.956030
11.314036 -8.499161 -1.973017
11.401888 -8.675105 -1.997582
11.430862 -8.808412 -2.012090
11.415019 -8.908369 -2.018885
11.361939 -8.979661 -2.019204
11.233834 -8.990948 -2.006204
11.127985 -9.018804 -1.997146
11.098460 -9.108270 -2.001840
11.155935 -9.270575 -2.022429
11.330553 -9.533820 -2.064651
11.488462 -9.787717 -2.104329
11.616917 -10.020822 -2.139081
11.710069 -10.227160 -2.167748
11.748946 -10.388879 -2.186704
11.781140 -10.546859 -2.204699
11.770592 -10.668243 -2.214934
11.731931 -10.765058 -2.220047
11.659957 -10.831545 -2.218962
11.519245 -10.833263 -2.204792
11.362219 -10.817732 -2.187401
11.201725 -10.796737 -2.169216
11.024919 -10.757594 -2.147720
10.899876 -10.766929 -2.136191
10.847557 -10.847557 -2.138941
10.825003 -10.958668 -2.147713
10.835942 -11.105214 -2.163362
10.847470 -11.254361 -2.179409
10.813169 -11.357427 -2.186478
10.763927 -11.445518 -2.190681
10.677548 -11.494181 -2.187414
10.572613 -11.522202 -2.180359
10.483389 -11.566638 -2.176554
10.408335 -11.626405 -2.175742
10.382889 -11.742172 -2.185443
10.343318 -11.843069 -2.192368
10.320433 -11.964251 -2.203037
10.295596 -12.084592 -2.213522
10.247022 -12.178164 -2.219103
10.241476 -12.324288 -2.234236
10.216720 -12.449110 -2.245458
10.193481 -12.577377 -2.257269
10.173724 -12.711666 -2.270124
10.119327 -12.803956 -2.275474
10.059648 -12.890247 -2.279797
9.965808 -12.932838 -2.276471
9.797585 -12.877188 -2.256051
9.620688 -12.807005 -2.233371
9.586396 -12.925758 -2.243780
9.644820 -13.172699 -2.276330
9.658618 -13.362794 -2.298895
10.049818 -14.085262 -2.412532
9.810482 -13.929815 -2.375552
9.596330 -13.804899 -2.344163
9.662804 -14.084139 -2.381467
10.695146 -18.612347 -2.993028
0.497059 -0.877431 -0.140606
1.706648 -23.136465 -3.234650
1.531898 -22.661939 -3.166934
1.077303 -17.535263 -2.449527
0.085036 -1.730951 -0.241635
0.654480 -15.228295 -2.125220
0.863965 -23.456806 -3.272768
0.770741 -25.114372 -3.503311
0.052245 -2.128239 -0.296827
-1.713460 -25.347847 -3.542281
-1.808154 -24.512544 -3.427036
-1.636242 -20.469243 -2.863102
-1.771604 -20.572575 -2.879022
-2.003184 -21.703057 -3.038890
-2.147156 -21.800439 -3.054313
-2.292914 -21.901798 -3.070427
-2.434393 -21.951657 -3.079453
-2.570111 -21.945451 -3.080736
-2.688584 -21.798460 -3.062360
-2.808008 -21.671363 -3.046868
-2.933322 -21.597724 -3.038988
-3.059499 -21.535053 -3.032754
-3.185699 -21.476239 -3.027167
-3.320600 -21.476891 -3.030074
-3.450535 -21.445035 -3.028510
-3.581460 -21.419904 -3.028007
-3.709198 -21.376634 -3.025051
-3.831729 -21.305858 -3.018305
-3.955096 -21.242785 -3.012751
-4.076598 -21.172583 -3.006286
-4.211127 -21.170768 -3.009640
-4.346058 -21.169412 -3.013182
-4.483372 -21.177789 -3.018233
-4.618045 -21.171946 -3.021382
-4.739820 -21.107375 -3.016261
-4.858231 -21.030229 -3.009440
-4.980685 -20.972680 -3.005522
-5.095326 -20.884542 -2.997315
-5.200750 -20.762557 -2.984331
-5.303284 -20.633900 -2.970460
-5.382252 -20.420606 -2.944453
-5.502335 -20.368265 -2.941719
-5.707257 -20.623378 -2.983566
-6.001622 -21.180620 -3.069451
-6.288480 -21.684814 -3.148051
-6.029026 -20.323119 -2.955684
-6.115561 -20.160302 -2.937407
-6.749411 -21.768093 -3.177641
-12.412845 -15.705937 -2.791204
-11.699067 -14.617521 -2.610483
-11.219120 -13.842877 -2.484389
-11.862249 -14.454193 -2.607116
-11.938546 -14.366491 -2.604462
-11.862505 -14.098098 -2.568953
-11.925438 -13.997641 -2.563933
-11.985407 -13.894417 -2.558448
-12.088018 -13.840746 -2.562175
-12.207065 -13.805161 -2.569405
-12.390593 -13.840643 -2.590110
-12.475146 -13.764203 -2.590082
-12.440891 -13.558280 -2.565649
-12.420920 -13.370889 -2.544563
-12.469265 -13.258841 -2.537752
-12.472499 -13.100275 -2.522003
-12.830083 -13.311342 -2.577744
-12.392412 -12.700363 -2.474106
-12.258018 -12.409377 -2.432027
-12.319757 -12.319757 -2.429233
-13.313305 -9.747769 -2.300628
-13.451411 -9.722670 -2.314140
-12.847248 -9.166496 -2.200484
-13.313867 -9.376683 -2.270510
-13.645707 -9.485670 -2.317131
-13.501198 -9.262862 -2.282898
-13.401764 -9.074209 -2.256628
-13.289195 -8.879556 -2.228457
-13.157829 -8.675475 -2.197460
-13.116547 -8.533250 -2.181780
-13.119960 -8.421349 -2.173712
-13.153662 -8.329465 -2.170787
-13.175079 -8.230205 -2.165946
-13.158924 -8.108291 -2.155071
-13.090814 -7.955917 -2.135881
-12.930934 -7.750503 -2.101996
-12.937757 -7.647083 -2.095438
-12.932007 -7.536998 -2.086978
-12.934705 -7.432623 -2.080014
-12.997394 -7.362933 -2.082790
-13.003602 -7.261419 -2.076606
-13.040819 -7.177589 -2.075477
-13.071637 -7.090398 -2.073419
-13.130022 -7.018143 -2.075810
-13.200023 -6.951764 -2.080094
-13.468001 -6.987674 -2.115526
-13.888654 -7.098105 -2.174719
-14.107303 -7.101019 -2.202092
-14.329730 -7.103114 -2.229966
-13.931769 -6.799682 -2.161503
-14.360403 -6.900105 -2.221394
-12.793204 -3.625011 -1.853965
-16.812100 -4.652535 -2.432192
-15.907698 -4.297346 -2.297495
-15.109920 -3.982516 -2.178704
-14.116911 -3.628300 -2.032273
-13.579912 -3.401591 -1.951925
-4.962051 -1.210621 -0.712145
-9.813835 -2.140603 -1.400502
-16.253099 -3.440808 -2.316372
-16.595025 -3.406941 -2.362079
-15.291010 -3.041571 -2.173773
-14.350999 -2.763161 -2.037692
-14.677970 -2.732824 -2.081699
-14.206510 0.000000 -2.091501
-13.436051 0.082444 -1.978111
-11.853614 0.145473 -1.745236
-7.778757 0.143206 -1.145393
-1.510514 0.037081 -0.222447
-3.708782 0.182201 -0.546670
-6.237234 0.344791 -0.919656
-2.695790 0.165620 -0.397626
-1.131779 0.097463 -0.167239
-3.039613 0.355980 -0.450554
-10.564150 1.302964 -1.567053
-10.044561 1.301497 -1.491136
-16.768330 2.592597 -2.497988
-16.745120 2.694313 -2.496947
-15.139745 2.531402 -2.259835
-14.354729 2.490782 -2.144900
-14.259267 2.564443 -2.132947
-13.860357 2.580596 -2.075607
-13.468390 2.593222 -2.019254
-13.838794 2.752707 -2.077280
-14.906390 3.060266 -2.240309
-15.054717 3.187108 -2.265497
-14.982594 3.268018 -2.257619
-15.256762 3.426021 -2.302056
-15.067994 3.480885 -2.276753
-15.282233 3.629293 -2.312446
-15.405447 3.758559 -2.334536
-15.293898 3.830922 -2.321150
-15.450063 3.970944 -2.348505
-15.631382 4.119958 -2.379864
-15.640136 4.225066 -2.385099
-15.705836 4.346390 -2.399140
-15.655427 4.436034 -2.395553
-15.697669 4.552240 -2.406246
-15.737240 4.668586 -2.416657
-15.655113 4.748927 -2.408475
-15.718932 4.873809 -2.422848
-15.902299 5.037825 -2.455830
-16.171239 5.232423 -2.502274
-16.382454 5.412032 -2.540048
-16.669114 5.620406 -2.589792
-16.288414 5.603583 -2.535939
-15.617527 5.480180 -2.436678
-13.466790 4.818495 -2.105689
-14.273166 5.206030 -2.236728
-13.683455 5.278291 -2.159177
-16.224976 6.373305 -2.566338
-15.826637 6.329202 -2.509427
-15.497916 6.308318 -2.463397
-15.739983 6.519714 -2.508186
-15.942138 6.718346 -2.546920
-15.967548 6.844731 -2.557641
-16.013793 6.981177 -2.571862
-16.061261 7.119467 -2.586453
-16.123629 7.265810 -2.603627
-16.144177 7.394577 -2.614222
-16.155144 7.519862 -2.623421
-16.127135 7.627567 -2.626423
-16.003791 7.689745 -2.613971
-15.760283 7.692125 -2.581858
-15.440349 7.653638 -2.537092
-15.168022 7.634941 -2.499995
-14.937016 7.633894 -2.469595
-14.807890 7.682855 -2.455994
-14.926300 7.860904 -2.483586
-15.087321 8.064341 -2.518564
-15.378601 8.341756 -2.575685
-15.085291 8.302855 -2.535045
-14.513733 8.104700 -2.447307
-14.992052 8.492893 -2.536700
-12.674456 11.346585 -2.504437
-13.134412 11.904337 -2.609707
-11.347733 10.412523 -2.267360
-10.245064 9.517178 -2.058668
-8.150183 8.150183 -1.696888
-12.024045 12.172515 -2.518938
-11.214721 11.493405 -2.364121
-10.759394 11.162981 -2.282532
-10.771454 11.313612 -2.299775
-10.802175 11.486188 -2.321338
-10.881947 11.714213 -2.353882
-10.963987 11.948727 -2.387443
-11.046214 12.187619 -2.421587
-11.057460 12.351496 -2.440621
-11.057505 12.505106 -2.457521
-11.008498 12.604699 -2.463772
-10.931093 12.672175 -2.463804
-10.847674 12.732602 -2.462565
-10.739816 12.763829 -2.455813
-10.629773 12.791552 -2.448552
-10.495462 12.788757 -2.435644
-10.341892 12.760496 -2.418130
-10.202604 12.747750 -2.403806
-10.085754 12.761476 -2.394679
-9.979874 12.788026 -2.388126
-9.882645 12.824915 -2.383645
-9.785092 12.860768 -2.379105
-9.667400 12.869188 -2.369644
-9.481481 12.784297 -2.343257
-9.264052 12.652654 -2.308665
-8.969506 12.409401 -2.254195
-8.657456 12.133805 -2.194441
-8.443597 11.988987 -2.158840
-8.276151 11.905742 -2.134666
-8.243703 12.015710 -2.145273
-8.223486 12.145325 -2.159364
-8.151882 12.200154 -2.160179
-8.089827 12.269595 -2.163644
-8.033713 12.348703 -2.168861
-8.036492 12.520376 -2.190310
-8.045181 12.704729 -2.213883
-7.978398 12.771981 -2.217030
-7.905062 12.829103 -2.218484
-7.814965 12.858888 -2.215300
-7.716635 12.874428 -2.209779
-7.610953 12.876631 -2.202100
-7.527709 12.916068 -2.200903
-7.468539 12.997208 -2.206879
-7.415919 13.090928 -2.215024
-7.394876 13.242595 -2.232967
-7.345237 13.345415 -2.242663
-7.263541 13.390837 -2.242764
-7.146125 13.369460 -2.231797
-7.018284 13.326332 -2.217368
-6.822003 13.148688 -2.180803
-6.711765 13.132713 -2.171282
-6.717277 13.344938 -2.199514
-6.709474 13.535606 -2.224113
-6.774693 13.880571 -2.273923
-6.819832 14.193341 -2.318262
-6.824781 14.429788 -2.349998
-6.792948 14.593492 -2.369825
-6.762558 14.764325 -2.390783
-6.790807 15.069545 -2.433414
-6.847239 15.447123 -2.487554
-6.959858 15.964888 -2.564008
-7.051652 16.450259 -2.634961
-7.037949 16.700532 -2.668082
-6.925935 16.720687 -2.664462
-6.758569 16.604065 -2.639220
-6.754152 16.889257 -2.677913
-6.808758 17.333537 -2.741681
-6.972762 18.076206 -2.852330
-6.814852 17.994899 -2.832848
-6.691312 18.001412 -2.827357
-6.427187 17.621162 -2.761387
11.337391 16.309521 -2.924250
11.057849 15.700939 -2.827246
10.821557 15.166889 -2.742985
11.363669 15.721750 -2.855891
10.939929 14.941532 -2.726305
11.286438 15.217999 -2.789334
11.347442 12.366622 -2.470942
11.154457 12.007565 -2.412829
10.719673 11.398462 -2.303608
11.101079 11.659828 -2.370152
11.273897 11.696784 -2.391681
11.341201 11.623028 -2.390784
11.429060 11.570183 -2.394294
11.408623 11.408623 -2.375303
11.271352 11.133873 -2.332455
11.188294 10.917007 -2.301362
11.213103 10.807703 -2.292781
11.502838 10.951613 -2.338240
11.820606 11.116678 -2.388923
11.985919 11.134349 -2.408480
12.018890 11.028367 -2.401462
12.047971 10.919644 -2.393840
12.100576 10.832829 -2.391040
12.131832 10.727441 -2.384165
12.133437 10.596915 -2.371657
12.039428 10.385282 -2.340782
11.981118 10.207439 -2.317224
11.910588 10.021877 -2.291646
11.786915 9.794920 -2.256245
11.670536 9.577761 -2.222676
11.554756 9.364686 -2.189641
11.458699 9.170917 -2.160733
11.382526 8.995931 -2.135921
11.322216 8.835944 -2.114390
11.303976 8.710637 -2.100963
11.351094 8.636459 -2.099831
11.473209 8.618733 -2.112598
11.591342 8.596725 -2.124598
11.730520 8.588882 -2.140408
11.868596 8.578612 -2.155957
11.900111 8.490715 -2.152177
11.689586 8.232736 -2.104927
11.351167 7.890644 -2.035232
11.143969 7.645622 -1.989633
11.232866 7.605669 -1.997135
11.577787 7.736030 -2.049981
12.098629 7.977103 -2.133496
12.738023 8.286993 -2.237239
13.241022 8.499055 -2.316380
13.567585 8.591578 -2.364242
13.733013 8.578735 -2.383851
13.752085 8.473786 -2.378091
13.610926 8.272014 -2.344860
13.224736 7.926602 -2.269906
12.792197 7.561047 -2.187660
12.579908 7.331789 -2.143622
12.606748 7.244170 -2.140581
12.699708 7.194296 -2.148829
12.790406 7.142367 -2.156719
12.785874 7.037269 -2.148633
12.728543 6.904295 -2.131840
12.710060 6.793668 -2.121722
12.690661 6.683510 -2.111598
12.647339 6.561885 -2.097651
12.586983 6.432857 -2.081055
12.478354 6.281076 -2.056684
12.363248 6.128347 -2.031476
12.279742 5.993376 -2.011674
12.210770 5.867217 -1.994440
12.163377 5.752849 -1.980896
12.162545 5.661396 -1.975066
12.179285 5.578523 -1.972188
12.236785 5.514277 -1.975983
12.270704 5.439229 -1.976034
12.304485 5.364113 -1.976136
12.301963 5.273422 -1.970497
12.276193 5.173441 -1.961248
12.252228 5.075039 -1.952407
12.217702 4.973130 -1.942007
12.242446 4.895855 -1.941128
12.271443 4.820325 -1.941000
12.327567 4.755267 -1.945225
12.415471 4.701865 -1.954506
12.459203 4.631216 -1.956881
12.490258 4.555728 -1.957331
12.500232 4.472655 -1.954556
12.488159 4.382086 -1.948427
12.494804 4.298495 -1.945313
12.496136 4.213383 -1.941458
12.500964 4.129761 -1.938235
12.504321 4.045942 -1.934870
12.518002 3.965684 -1.933185
12.542566 3.888946 -1.933257
12.578994 3.815796 -1.935226
12.606602 3.739856 -1.935907
12.639371 3.665350 -1.937449
12.670001 3.590101 -1.938731
12.720990 3.520372 -1.943191
12.764368 3.448199 -1.946549
12.810149 3.376367 -1.950334
12.839979 3.300106 -1.951756
12.845525 3.217637 -1.949561
12.838802 3.132359 -1.945587
12.825613 3.045884 -1.940720
12.830376 2.963968 -1.938652
12.856837 2.887099 -1.939937
12.905067 2.814866 -1.944572
12.985828 2.749121 -1.954162
13.059387 2.681078 -1.962719
13.133879 2.612491 -1.971468
13.191864 2.539980 -1.977796
13.197780 2.457234 -1.976385
13.199229 2.373801 -1.974383
13.194848 2.289523 -1.971590
13.198054 2.206747 -1.970008
13.204986 2.124700 -1.969060
13.194162 2.039985 -1.965542
13.138263 1.948877 -1.955397
13.062281 1.855767 -1.942357
12.966540 1.761067 -1.926477
12.889258 1.670091 -1.913437
12.858596 1.585957 -1.907404
12.857535 1.505792 -1.905840
12.854514 1.425539 -1.904060
12.846472 1.344906 -1.901611
12.868783 1.267464 -1.903726
12.938509 1.194220 -1.912921
13.055633 1.124284 -1.929181
13.193815 1.054669 -1.948607
13.304122 0.981371 -1.963972
13.349421 0.902392 -1.969805
13.315672 0.818066 -1.964047
13.241847 0.732003 -1.952459
13.183312 0.647655 -1.943205
13.200630 0.567335 -1.945208
13.291928 0.489571 -1.958182
13.424929 0.412001 -1.977367
13.543902 0.332484 -1.994552
13.708279 0.252367 -2.018493
13.839217 0.169841 -2.037581
13.921946 0.085425 -2.049646
13.987001 -0.000000 -2.059185
13.978295 -0.085771 -2.057942
13.956690 -0.171283 -2.054877
13.912612 -0.256129 -2.048580
13.846568 -0.339914 -2.039124
13.776193 -0.422781 -2.029104
13.717198 -0.505234 -2.020833
13.703666 -0.588955 -2.019334
13.764037 -0.676184 -2.028804
13.883257 -0.767460 -2.047032
14.028027 -0.861831 -2.069119
14.155458 -0.956878 -2.088741
14.249752 -1.051125 -2.103567
14.293600 -1.142582 -2.111035
14.307532 -1.232091 -2.114170
14.326119 -1.322295 -2.118075
14.327302 -1.411116 -2.119490
14.302115 -1.497298 -2.117084
14.229347 -1.578005 -2.107706
14.091042 -1.650253 -2.088680
13.951218 -1.720719 -2.069480
13.807327 -1.789047 -2.049726
13.732605 -1.865111 -2.040294
13.671653 -1.942341 -2.032970
13.603612 -2.017905 -2.024656
13.573939 -2.098703 -2.022118
13.502757 -2.172612 -2.013462
13.434095 -2.246213 -2.005241
13.285133 -2.305189 -1.985080
13.094187 -2.354910 -1.958671
12.960806 -2.413113 -1.940898
12.820822 -2.468539 -1.922167
12.759280 -2.537979 -1.915239
12.730506 -2.613559 -1.913291
12.688220 -2.686117 -1.909377
12.661153 -2.761663 -1.907818
12.605734 -2.830712 -1.902049
12.607410 -2.912461 -1.904962
12.701332 -3.016369 -1.921914
12.838321 -3.132242 -1.945514
13.019106 -3.261116 -1.975906
13.178609 -3.387140 -2.003230
13.340378 -3.516119 -2.031061
13.490693 -3.644410 -2.057312
13.556252 -3.751520 -2.070781
13.626553 -3.861144 -2.085100
13.641657 -3.956007 -2.091086
13.705542 -4.065865 -2.104663
13.823168 -4.193212 -2.126638
13.948292 -4.324805 -2.149929
14.046805 -4.450007 -2.169282
14.032377 -4.540365 -2.171315
13.916760 -4.597476 -2.157749
13.775321 -4.644692 -2.140198
13.657638 -4.698536 -2.126354
13.639678 -4.786154 -2.128090
13.733543 -4.913940 -2.147399
13.829908 -5.044355 -2.167265
13.887589 -5.162162 -2.181227
13.917989 -5.270884 -2.191040
13.911945 -5.366429 -2.195231
13.818004 -5.427827 -2.185622
13.658241 -5.462042 -2.165613
13.490280 -5.491124 -2.144283
13.553837 -5.614183 -2.159821
14.055057 -5.923091 -2.245440
14.650864 -6.280314 -2.346738
14.709176 -6.412433 -2.362337
15.385429 -6.819892 -2.477619
14.910033 -6.718926 -2.407657
15.214254 -6.968641 -2.463640
12.007251 -6.418009 -2.004401
13.894028 -7.536484 -2.327041
12.650367 -6.962687 -2.125862
11.696478 -6.531500 -1.972261
6.469253 -3.664787 -1.094617
1.808914 -1.129992 -0.314001
2.681871 -1.698276 -0.467334
2.358448 -1.513824 -0.412586
2.125451 -1.382757 -0.373303
4.281546 -2.822992 -0.755016
9.213711 -6.156405 -1.631394
11.581873 -7.841978 -2.059186
11.728965 -8.046974 -2.094078
11.770169 -8.181909 -2.110358
11.816770 -8.322308 -2.127829
11.840369 -8.448089 -2.141372
11.817749 -8.541860 -2.146720
11.768063 -8.616370 -2.147258
11.714957 -8.688404 -2.147255
11.636854 -8.741664 -2.142731
11.592427 -8.820077 -2.144475
11.542131 -8.894154 -2.145226
11.454754 -8.939378 -2.139141
11.371172 -8.986958 -2.133790
11.261082 -9.012755 -2.123469
11.140193 -9.028698 -2.111081
11.051868 -9.070034 -2.104850
10.987513 -9.130617 -2.103224
10.967407 -9.228260 -2.110174
10.964165 -9.341036 -2.120538
10.944635 -9.440907 -2.127925
10.926433 -9.542760 -2.135731
10.883712 -9.623805 -2.138882
10.832439 -9.697551 -2.140460
10.805352 -9.793401 -2.146941
10.743670 -9.858243 -2.146664
10.681198 -9.922326 -2.146306
10.588114 -9.957582 -2.139839
10.450582 -9.949781 -2.124342
10.334802 -9.961156 -2.113192
10.218458 -9.970687 -2.101873
10.148157 -10.024378 -2.100025
10.141996 -10.141996 -2.111588
10.152243 -10.277601 -2.126811
10.191031 -10.444277 -2.148322
10.232245 -10.616059 -2.170701
10.239535 -10.754920 -2.186206
10.241642 -10.890161 -2.200882
10.241023 -11.024270 -2.215244
10.235394 -11.154695 -2.228790
10.248210 -11.307158 -2.246646
10.262272 -11.463248 -2.265106
10.256701 -11.599464 -2.279543
10.218989 -11.700713 -2.287075
10.111560 -11.722108 -2.279086
9.989684 -11.725524 -2.267790
9.902597 -11.768828 -2.264371
9.860430 -11.865748 -2.271335
9.873735 -12.031181 -2.291362
9.896004 -12.210332 -2.313873
9.821002 -12.270954 -2.313898
9.585332 -12.128293 -2.275863
9.348836 -11.979426 -2.237122
9.265380 -12.023878 -2.234764
9.249862 -12.157303 -2.248971
9.165751 -12.201397 -2.246682
9.080646 -12.243834 -2.244194
9.049545 -12.359684 -2.255208
9.055724 -12.528684 -2.275863
9.053035 -12.688227 -2.294710
9.070305 -12.878843 -2.319075
9.086016 -13.070782 -2.343554
9.100885 -13.265105 -2.368338
8.885997 -13.123791 -2.333330
8.645881 -12.939476 -2.291084
8.233130 -12.486939 -2.201971
7.999396 -12.295954 -2.159596
4.257429 -6.632821 -1.160343
8.054273 -12.719086 -2.216385
9.496245 -15.201782 -2.638808
9.041915 -14.674100 -2.537532
8.852208 -14.565588 -2.509327
8.737440 -14.577538 -2.502102
9.311755 -15.754141 -2.694198
1.325914 -2.275007 -0.387662
10.844409 -19.143059 -3.239063
9.670453 -17.317652 -2.920104
8.179638 -14.861422 -2.497424
8.214474 -15.143948 -2.536384
8.149781 -15.247169 -2.545248
7.916286 -15.031460 -2.501084
7.850133 -15.130301 -2.509468
7.794501 -15.251271 -2.521552
7.644994 -15.187994 -2.503287
7.518891 -15.168512 -2.492425
7.356344 -15.072308 -2.469154
7.197053 -14.978408 -2.446490
7.090386 -14.991361 -2.441454
7.011885 -15.063840 -2.446205
6.952618 -15.179273 -2.457976
6.903970 -15.320666 -2.473965
6.856278 -15.467515 -2.490838
6.804854 -15.609334 -2.506905
6.750917 -15.748697 -2.522587
6.693593 -15.883399 -2.537536
6.644627 -16.041549 -2.556240
6.611876 -16.243679 -2.581937
6.583084 -16.461487 -2.610087
6.554618 -16.686557 -2.639347
6.514539 -16.888307 -2.664886
6.453077 -17.039618 -2.682463
6.379257 -17.161900 -2.695501
6.292698 -17.252438 -2.703605
6.194730 -17.313110 -2.707105
6.100535 -17.385429 -2.712509
5.998661 -17.436822 -2.714734
5.898214 -17.493043 -2.717801
5.799220 -17.554491 -2.721768
5.687881 -17.578871 -2.720086
5.592997 -17.654743 -2.726464
5.500866 -17.741305 -2.734568
5.402005 -17.808024 -2.739691
5.309859 -17.898894 -2.748607
5.210954 -17.969139 -2.754432
5.119065 -18.065944 -2.764404
5.012355 -18.112322 -2.766742
4.904460 -18.155080 -2.768625
4.792143 -18.181693 -2.768147
4.680997 -18.212721 -2.768446
4.577910 -18.276040 -2.773749
4.480451 -18.364314 -2.782921
4.391298 -18.490885 -2.797966
4.297815 -18.604307 -2.811085
4.198049 -18.694759 -2.820807
4.088856 -18.745817 -2.824672
3.974646 -18.774754 -2.825304
3.864496 -18.823752 -2.829056
3.753156 -18.868388 -2.832250
3.652676 -18.970862 -2.844214
3.560387 -19.122804 -2.863665
3.466700 -19.276158 -2.883390
3.378067 -19.468279 -2.908973
3.279034 -19.611163 -2.927261
3.174888 -19.731888 -2.942318
3.067668 -19.840979 -2.955723
2.950527 -19.890835 -2.960397
2.832337 -19.936116 -2.964494
2.711422 -19.963899 -2.966096
2.592252 -20.006225 -2.969965
2.476511 -20.079017 -2.978459
2.361798 -20.166724 -2.989263
2.253621 -20.321582 -3.010111
2.141562 -20.456095 -3.028032
2.028285 -20.593524 -3.046476
1.910948 -20.703751 -3.060990
1.782028 -20.693616 -3.057817
1.659852 -20.764603 -3.066744
1.535015 -20.809690 -3.071954
1.408377 -20.834649 -3.074305
1.283437 -20.890506 -3.081327
1.154828 -20.890698 -3.080252
1.029335 -20.952602 -3.088390
0.902828 -21.006798 -3.095504
0.777431 -21.107390 -3.109565
0.651649 -21.233788 -3.127538
0.522877 -21.299643 -3.136707
0.393067 -21.350932 -3.143845
0.261531 -21.310378 -3.137579
0.130296 -21.234625 -3.126249
0.000000 -21.155280 -3.114509
-0.129298 -21.072095 -3.102320
-0.257988 -21.021686 -3.095074
-0.385649 -20.947954 -3.084508
-0.513027 -20.898421 -3.077620
-0.640006 -20.854417 -3.071661
-0.766261 -20.804122 -3.064887
-0.895366 -20.833165 -3.069918
-1.024684 -20.857932 -3.074436
-1.154691 -20.888224 -3.079887
-1.283341 -20.888952 -3.081098
-1.404029 -20.770324 -3.064813
-1.516866 -20.563649 -3.035633
-1.631968 -20.415770 -3.015224
-1.758664 -20.422312 -3.017728
-1.896388 -20.545996 -3.037666
-2.037123 -20.683254 -3.059750
-2.169340 -20.721426 -3.067308
-2.299695 -20.737047 -3.071651
-2.422942 -20.688816 -3.066652
-2.544117 -20.627155 -3.059768
-2.662965 -20.551963 -3.050981
-2.778407 -20.457102 -3.039372
-2.891097 -20.349707 -3.025995
-3.009184 -20.286271 -3.019251
-3.136330 -20.285069 -3.021879
-3.269473 -20.319735 -3.029975
-3.411139 -20.401251 -3.045194
-3.539587 -20.399144 -3.048064
-3.667628 -20.393394 -3.050510
-3.794175 -20.378478 -3.051704
-3.910549 -20.310175 -3.045011
-4.037686 -20.298818 -3.046966
-4.162503 -20.275329 -3.047216
-4.286541 -20.248031 -3.047009
-4.415230 -20.242117 -3.050139
-4.523578 -20.144410 -3.039541
-4.623479 -20.014038 -3.024093
-4.721187 -19.879984 -3.008159
-4.805439 -19.696361 -2.984779
-4.910127 -19.602326 -2.975039
-5.025194 -19.551915 -2.972012
-5.150621 -19.541781 -2.975219
-5.294752 -19.599845 -2.988950
-5.418789 -19.580988 -2.991088
-5.535430 -19.535357 -2.989250
-5.641371 -19.453364 -2.981944
-5.707690 -19.239935 -2.954541
-5.779490 -19.052424 -2.931137
-5.836596 -18.824096 -2.901465
-5.900914 -18.626710 -2.876567
-5.991530 -18.517323 -2.865298
-6.072159 -18.380688 -2.849867
-6.163900 -18.281020 -2.840225
-6.254113 -18.179366 -2.830340
-6.330082 -18.039596 -2.814574
-6.431256 -17.974156 -2.810468
-6.520889 -17.878060 -2.801646
-6.635111 -17.850214 -2.803609
-6.784405 -17.914503 -2.820192
-6.908959 -17.910803 -2.826230
-7.014544 -17.857423 -2.824545
-7.069272 -17.677237 -2.802853
-7.119546 -17.490894 -2.780182
-7.170391 -17.310856 -2.758506
-7.250468 -17.204823 -2.748647
-7.342084 -17.127785 -2.743485
-7.439569 -17.065277 -2.740733
-7.537916 -17.005266 -2.738472
-7.648810 -16.973548 -2.740871
-7.776665 -16.978369 -2.749303
-7.889693 -16.949662 -2.752442
-8.039114 -16.997279 -2.768132
-8.184664 -17.033809 -2.782208
-8.303976 -17.013896 -2.787226
-8.441633 -17.030041 -2.798303
-8.531652 -16.949481 -2.793615
-8.588156 -16.804194 -2.778302
-8.646498 -16.665209 -2.764043
-8.676727 -16.475387 -2.741339
-8.763999 -16.396289 -2.737074
-8.871016 -16.354329 -2.739104
-9.014892 -16.378977 -2.752445
-9.160045 -16.403624 -2.765980
-9.246247 -16.321909 -2.761716
-9.306759 -16.196192 -2.750055
-9.278476 -15.920041 -2.712782
-9.223572 -15.604949 -2.668684
-9.246965 -15.427630 -2.648013
-9.292499 -15.290050 -2.634136
-9.424243 -15.294578 -2.644828
-9.582842 -15.340407 -2.662871
-9.716252 -15.343639 -2.673731
-9.847855 -15.342371 -2.683989
-9.950728 -15.295368 -2.686397
-10.118035 -15.345715 -2.706093
-10.348283 -15.487300 -2.742206
-10.628670 -15.697558 -2.790930
-11.093823 -16.169937 -2.886964
-10.549871 -15.176626 -2.721126
-10.450015 -14.837881 -2.671836
-11.793321 -16.528858 -2.989302
-10.815826 -14.215486 -2.629713
-10.556500 -13.699392 -2.546176
-10.140048 -12.993271 -2.426454
-10.663542 -13.492549 -2.531865
-10.976065 -13.714160 -2.586039
-11.118320 -13.718503 -2.599674
-11.183062 -13.626601 -2.595212
-11.168742 -13.440132 -2.572703
-11.208670 -13.321042 -2.563023
-11.283913 -13.244642 -2.561597
-11.472821 -13.300188 -2.585907
-11.651412 -13.340833 -2.607660
-11.706242 -13.238772 -2.601702
-11.842800 -13.228743 -2.613963
-12.003766 -13.244115 -2.631504
-12.049035 -13.131229 -2.623716
-12.198492 -13.131449 -2.638665
-11.780199 -12.526142 -2.531511
-12.273665 -12.891434 -2.620506
-0.981131 -1.017934 -0.208140
-4.326035 -4.118728 -0.879375
-12.270893 -11.540150 -2.479925
-11.853997 -11.011800 -2.381971
-10.210565 -9.369074 -2.040146
-12.724752 -9.437319 -2.332342
-13.517763 -9.897470 -2.466517
-12.580547 -9.093210 -2.285284
-11.284323 -8.051351 -2.040810
-10.708328 -7.541656 -1.928233
-2.633253 -1.782951 -0.468176
-13.461517 -8.994698 -2.383518
-12.965720 -8.548810 -2.286400
-12.471457 -8.113573 -2.190421
-12.636992 -8.111345 -2.210711
-12.863810 -8.145918 -2.241604
-12.920436 -8.071135 -2.242799
-12.806566 -7.891175 -2.214587
-12.549112 -7.626699 -2.161933
-12.103232 -7.254398 -2.077410
-11.567424 -6.837124 -1.978205
-11.052886 -6.441814 -1.883416
-8.763750 -5.035882 -1.488053
-1.721028 -0.974951 -0.291203
-1.300593 -0.684955 -0.216406
-2.016704 -1.046337 -0.334485
-3.049717 -1.374297 -0.492465
-12.728791 -5.642285 -2.049803
-13.276004 -5.787644 -2.132165
-11.624341 -4.982950 -1.861958
-3.031307 -1.277455 -0.484282
-9.666206 -3.458624 -1.511423
-15.126822 -5.307992 -2.360117
-14.930451 -5.136413 -2.324518
-14.661170 -4.943378 -2.277828
-14.811581 -4.893085 -2.296489
-14.870166 -4.811443 -2.300951
-14.660338 -4.644374 -2.264031
-13.894571 -4.308148 -2.141649
-13.250350 -4.019450 -2.038512
-7.474322 -2.217321 -1.147779
