2.153954 -31.864241 -1.499126
1.956733 -31.849755 -1.497851
1.771987 -32.055031 -1.506965
1.575292 -32.065795 -1.506989
1.369350 -31.861723 -1.496975
1.163899 -31.600056 -1.484317
0.977907 -31.864795 -1.496443
0.829482 -33.789335 -1.586554
0.344993 -18.739569 -0.879787
0.228730 -18.637656 -0.874920
0.112425 -18.322258 -0.860066
0.000000 -18.158513 -0.852363
-0.112820 -18.386530 -0.863083
-0.226649 -18.468055 -0.866959
-0.336923 -18.301236 -0.859208
-0.443686 -18.073754 -0.848640
-0.549210 -17.895835 -0.840429
-0.656840 -17.833331 -0.837667
-0.771967 -17.961956 -0.843915
-0.885665 -18.028120 -0.847263
-1.001480 -18.116657 -0.851697
-1.187522 -19.329308 -0.909031
-1.481774 -21.920441 -1.031297
-1.724036 -23.372184 -1.100075
-1.990809 -24.904845 -1.172766
-2.543028 -29.530655 -1.391304
-3.283383 -35.573088 -1.676904
-3.570994 -36.256911 -1.710140
-3.883716 -37.097056 -1.750858
-4.181410 -37.705034 -1.780730
-4.452616 -38.019629 -1.796844
-4.734226 -38.384091 -1.815408
-5.006591 -38.639363 -1.828900
-5.293666 -38.976668 -1.846368
-5.578668 -39.266853 -1.861701
-5.847117 -39.418063 -1.870536
-6.125140 -39.616020 -1.881678
-6.395172 -39.745918 -1.889676
-6.671174 -39.898784 -1.898854
-6.943068 -40.013887 -1.906324
-7.211541 -40.098880 -1.912445
-7.504689 -40.307612 -1.924560
-7.818510 -40.606912 -1.941105
-8.146361 -40.954524 -1.960074
-8.595833 -41.869838 -2.006367
-9.194570 -43.431739 -2.083876
-9.637107 -44.182396 -2.122691
-10.007218 -44.564165 -2.143942
-10.462253 -45.288820 -2.181852
-10.911411 -45.945790 -2.216686
-11.321077 -46.402424 -2.242026
-11.744843 -46.888044 -2.268929
-12.146695 -47.260096 -2.290496
-12.476622 -47.337095 -2.297895
-12.853156 -47.579161 -2.313431
-13.199216 -47.695836 -2.322998
-13.553028 -47.830656 -2.333571
-13.958597 -48.133985 -2.352504
-14.286230 -48.157156 -2.357876
-14.634144 -48.242307 -2.366398
-14.929506 -48.150408 -2.366339
-15.190582 -47.950292 -2.361040
-15.457263 -47.771962 -2.356885
-15.685209 -47.479806 -2.347176
-15.969601 -47.362966 -2.346200
-16.287135 -47.343214 -2.350127
-16.568946 -47.218519 -2.348940
-16.989409 -47.482217 -2.367199
-17.458245 -47.864574 -2.391557
-17.818963 -47.937755 -2.400632
-18.212161 -48.089967 -2.413805
-18.642460 -48.328761 -2.431487
-18.922967 -48.173542 -2.429473
-19.142630 -47.867561 -2.419920
-19.256554 -47.308400 -2.397580
-19.243363 -46.457587 -2.360401
-19.231025 -45.633799 -2.324498
-19.193107 -44.774130 -2.286664
-19.259092 -44.177520 -2.262187
-19.378675 -43.717591 -2.244682
-19.568173 -43.423920 -2.235727
-19.743808 -43.105582 -2.225532
-19.940882 -42.839589 -2.218075
-20.222434 -42.756744 -2.220168
-20.488163 -42.639681 -2.220575
-20.761239 -42.537403 -2.221842
-21.095975 -42.558747 -2.229676
-21.394391 -42.503356 -2.233609
-21.659995 -42.381478 -2.234147
-21.933171 -42.273865 -2.235526
-22.094241 -41.952588 -2.225664
-22.274616 -41.672876 -2.218034
-22.434830 -41.360155 -2.208675
-22.535144 -40.943655 -2.193776
-22.664205 -40.586601 -2.182055
-22.758726 -40.174771 -2.167381
-22.774296 -39.633222 -2.145664
-22.794458 -39.110808 -2.124913
-22.840630 -38.643040 -2.107074
-22.880827 -38.174353 -2.089134
-23.027442 -37.889781 -2.081254
-23.185773 -37.628129 -2.074657
-23.490931 -37.604757 -2.081277
-23.796181 -37.578276 -2.087853
-24.044644 -37.460123 -2.089446
-24.357086 -37.439530 -2.096594
-24.659359 -37.400100 -2.102820
-24.980873 -37.386519 -2.110635
-25.222488 -37.251271 -2.111697
-25.424451 -37.057719 -2.109529
-25.657029 -36.909183 -2.109996
-25.822375 -36.664956 -2.105052
-26.121410 -36.610307 -2.111077
-26.433773 -36.571390 -2.118146
-26.751123 -36.536139 -2.125571
-27.213344 -36.692947 -2.144368
-27.613842 -36.759391 -2.158113
-28.086369 -36.914552 -2.177299
-28.515408 -37.005043 -2.192915
-28.828307 -36.940061 -2.199505
-29.198064 -36.944226 -2.210379
-29.657981 -37.056475 -2.227941
-30.145059 -37.194927 -2.247344
-30.591032 -37.275280 -2.263498
-30.954758 -37.250034 -2.273456
-31.278726 -37.173477 -2.280454
-31.711476 -37.221766 -2.295310
-32.294718 -37.438553 -2.320854
-32.761860 -37.512237 -2.337840
-33.206332 -37.553561 -2.353069
-33.637858 -37.574439 -2.367266
-33.889546 -37.391352 -2.368788
-34.136381 -37.202371 -2.370040
-34.224508 -36.842044 -2.360419
-34.337304 -36.511604 -2.352703
-34.400301 -36.131767 -2.341785
-34.481813 -35.775235 -2.332346
-34.591822 -35.451425 -2.325030
-34.644118 -35.071896 -2.314037
-34.816781 -34.816781 -2.311256
-34.954356 -34.528012 -2.306281
-35.070471 -34.220105 -2.300045
-35.075523 -33.807398 -2.286729
-34.949829 -33.275003 -2.265180
-34.882220 -32.804952 -2.247710
-34.931187 -32.449413 -2.237993
-35.058751 -32.169426 -2.233477
-35.528185 -32.200870 -2.250754
-36.010279 -32.237571 -2.268721
-36.508717 -32.282440 -2.287601
-36.898764 -32.226075 -2.299607
-37.167330 -32.060759 -2.304041
-37.474092 -31.926448 -2.310870
-37.714077 -31.733601 -2.313618
-37.929938 -31.519757 -2.314952
-37.996296 -31.182755 -2.307281
-38.096065 -30.875396 -2.301791
-38.103404 -30.495886 -2.290886
-38.127422 -30.133178 -2.281170
-38.192796 -29.805951 -2.274096
-38.239818 -29.466903 -2.266088
-38.470641 -29.270316 -2.269080
-38.557855 -28.964857 -2.263699
-38.703764 -28.704668 -2.261882
-38.716825 -28.347784 -2.252438
-38.614186 -27.910305 -2.236461
-38.685590 -27.602123 -2.230745
-38.560084 -27.157075 -2.213857
-38.624939 -26.849719 -2.208081
-38.525378 -26.431378 -2.193076
-38.382052 -25.988130 -2.175799
-38.232903 -25.546409 -2.158417
-38.020360 -25.068321 -2.137694
-37.823660 -24.606990 -2.118106
-37.575117 -24.118456 -2.095860
-37.385445 -23.674072 -2.077139
-37.110536 -23.182201 -2.053923
-36.926692 -22.753560 -2.035983
-36.690993 -22.298881 -2.015405
-36.560289 -21.913394 -2.000803
-36.401023 -21.515448 -1.984824
-36.218936 -21.109025 -1.967796
-36.128412 -20.760340 -1.955920
-35.967886 -20.375556 -1.940424
-35.828925 -20.007443 -1.926268
-35.685658 -19.641174 -1.912051
-35.553146 -19.284957 -1.898574
-35.474214 -18.961362 -1.888111
-35.427640 -18.657891 -1.879503
-35.458331 -18.397032 -1.875107
-35.709549 -18.250158 -1.882435
-36.041185 -18.141608 -1.894013
-36.196621 -17.942329 -1.896360
-37.686503 -18.393660 -1.968466
-38.696928 -18.593689 -2.015246
-38.519949 -18.218579 -2.000170
-38.731539 -18.028676 -2.005375
-39.279025 -17.991117 -2.027968
-39.450349 -17.777557 -2.031143
-39.432553 -17.479249 -2.024667
-39.204096 -17.090939 -2.007514
-38.985046 -16.711529 -1.991009
-38.851537 -16.372840 -1.979023
-38.728480 -16.041861 -1.967703
-38.566801 -15.698347 -1.954558
-38.446844 -15.375208 -1.943661
-38.123736 -14.975320 -1.922645
-37.759701 -14.565524 -1.899743
-37.405367 -14.165794 -1.877507
-37.134820 -13.803400 -1.859641
-36.705387 -13.388015 -1.833988
-36.149898 -12.934640 -1.802233
-35.746314 -12.543357 -1.778242
-34.701641 -11.938149 -1.722597
-32.596862 -10.990842 -1.614737
-31.083867 -10.268723 -1.536638
-30.181301 -9.765567 -1.489030
-29.636237 -9.388716 -1.459269
-29.350520 -9.100417 -1.442423
-28.868482 -8.757158 -1.416066
-28.643193 -8.497247 -1.402431
-31.701815 -9.193356 -1.549397
-31.077913 -8.806064 -1.516235
-30.970863 -8.570792 -1.508418
-31.373267 -8.475254 -1.525455
-31.260211 -8.239243 -1.517471
-31.134518 -8.002131 -1.508958
-31.115493 -7.794025 -1.505690
-30.967227 -7.555259 -1.496244
-30.854888 -7.327556 -1.488615
-30.646118 -7.079615 -1.476419
-30.322052 -6.809045 -1.458767
-29.881600 -6.517803 -1.435626
-29.638960 -6.274616 -1.422092
-29.567316 -6.070139 -1.416841
-29.594028 -5.886618 -1.416363
-29.636820 -5.706314 -1.416709
-29.600417 -5.511165 -1.413326
-29.509523 -5.307109 -1.407404
-29.260503 -5.077179 -1.394016
-28.971572 -4.844118 -1.378809
-28.573855 -4.597572 -1.358512
-28.214038 -4.362249 -1.340107
-28.175197 -4.179396 -1.337019
-28.144499 -3.998508 -1.334373
-28.138444 -3.821659 -1.332949
-28.150998 -3.647589 -1.332459
-28.078927 -3.463205 -1.328016
-28.154912 -3.297323 -1.330628
-28.092201 -3.115366 -1.326736
-27.967175 -2.927902 -1.319958
-28.868026 -2.843252 -1.361626
-30.294730 -2.796192 -1.428084
-30.453826 -2.622527 -1.434798
-30.791379 -2.461359 -1.449963
-30.889424 -2.278541 -1.453894
-30.878363 -2.087310 -1.452743
-30.638806 -1.882337 -1.440902
-30.273520 -1.673505 -1.423213
-30.831148 -1.514637 -1.448964
-31.638470 -1.359755 -1.486486
-31.371330 -1.155475 -1.473574
-31.684950 -0.972387 -1.487997
-31.732772 -0.778996 -1.489990
-31.469921 -0.579356 -1.477453
-31.220047 -0.383147 -1.465584
-30.959912 -0.189970 -1.453290
-30.826144 0.000000 -1.682974
-30.595642 0.187735 -1.670422
-30.464864 0.373879 -1.663375
-30.412448 0.559889 -1.660670
-30.424705 0.746885 -1.661558
-30.389834 0.932641 -1.659935
-30.312428 1.116473 -1.656050
-30.238431 1.299584 -1.652412
-30.147900 1.481071 -1.647930
-30.099060 1.663861 -1.645788
-29.997264 1.842923 -1.640809
-29.944867 2.024208 -1.638592
-29.862419 2.202784 -1.634789
-29.839525 2.385271 -1.634306
-29.740054 2.561060 -1.629688
-29.658817 2.737498 -1.626126
-29.550173 2.910438 -1.621118
-29.396705 3.077561 -1.613704
-29.279923 3.247082 -1.608357
-29.148064 3.413635 -1.602235
-28.986030 3.575086 -1.594504
-28.783334 3.729523 -1.584582
-28.526323 3.874339 -1.571713
-28.297602 4.020259 -1.560441
-28.141859 4.174450 -1.553236
-27.987829 4.327274 -1.546171
-27.885261 4.486776 -1.541996
-27.759949 4.641531 -1.536613
-27.621477 4.792781 -1.530547
-27.493360 4.944514 -1.525100
-27.370883 5.096059 -1.520012
-27.300248 5.256427 -1.517852
-27.231610 5.416704 -1.515855
-27.189332 5.581941 -1.515380
-27.147452 5.747160 -1.514983
-27.024043 5.894510 -1.510086
-26.886222 6.037503 -1.504426
-26.704938 6.169156 -1.496372
-26.525587 6.299414 -1.488460
-26.424182 6.446866 -1.484962
-26.386420 6.609454 -1.485091
-26.340056 6.769868 -1.484792
-26.290007 6.929248 -1.484339
-26.157199 7.066173 -1.479261
-25.960691 7.184291 -1.470613
-25.706218 7.283971 -1.458702
-25.477312 7.388283 -1.448258
-25.361509 7.523707 -1.444272
-25.330698 7.683983 -1.445176
-25.293187 7.842401 -1.445754
-25.226491 7.991715 -1.444717
-25.103986 8.122734 -1.440529
-24.925137 8.234153 -1.433138
-24.743809 8.342990 -1.425629
-24.577352 8.455165 -1.419001
-24.489347 8.593295 -1.416937
-24.505170 8.768090 -1.420939
-24.482020 8.929633 -1.422747
-24.450161 9.088380 -1.424109
-24.333313 9.215274 -1.420570
-24.143543 9.313192 -1.412801
-23.935190 9.401942 -1.403958
-23.707122 9.480673 -1.393967
-23.533307 9.579068 -1.387176
-23.381454 9.684915 -1.381702
-23.225828 9.787844 -1.376029
-23.119633 9.910580 -1.373314
-22.978713 10.017519 -1.368569
-22.864855 10.135293 -1.365466
-22.749883 10.251807 -1.362331
-22.646413 10.372820 -1.359921
-22.610149 10.524525 -1.361595
-22.582175 10.680574 -1.363832
-22.590012 10.854393 -1.368302
-22.585383 11.023253 -1.372092
-22.533925 11.169857 -1.373104
-22.448459 11.299605 -1.372095
-22.345347 11.420086 -1.370050
-22.254883 11.546617 -1.368822
-22.157519 11.669210 -1.367212
-22.101925 11.813725 -1.368228
-21.969551 11.916859 -1.364535
-21.888435 12.047264 -1.364062
-21.757989 12.150008 -1.360553
-21.681886 12.282637 -1.360482
-21.619720 12.423262 -1.361339
-21.519822 12.542126 -1.359868
-21.451407 12.679221 -1.360436
-21.374319 12.811274 -1.360507
-21.276300 12.930631 -1.359292
-21.190863 13.057427 -1.358927
-21.069649 13.161783 -1.356307
-20.918440 13.246456 -1.351781
-20.756106 13.322786 -1.346548
-20.586367 13.392901 -1.340842
-20.431721 13.471438 -1.336128
-20.283487 13.552993 -1.331848
-20.117815 13.621585 -1.326433
-19.946297 13.684697 -1.320635
-19.735162 13.718690 -1.312205
-19.451033 13.698963 -1.298878
-19.086015 13.617849 -1.280058
-18.745602 13.549307 -1.262780
-18.417652 13.485084 -1.246238
-18.220932 13.513564 -1.238515
-18.112717 13.606365 -1.236811
-18.007228 13.700766 -1.235325
-18.060133 13.916808 -1.244789
-18.110563 14.133622 -1.254218
-18.158656 14.351298 -1.263624
-18.231374 14.591397 -1.274890
-18.297111 14.829105 -1.285826
-18.341390 15.052389 -1.295404
-18.345954 15.245477 -1.302309
-18.333336 15.426143 -1.308108
-18.291795 15.583888 -1.311942
-18.228058 15.723631 -1.314265
-18.179194 15.877065 -1.317742
-18.127185 16.028768 -1.321076
-18.097301 16.201291 -1.326118
-18.048243 16.357974 -1.329853
-17.999211 16.515828 -1.333682
-17.934425 16.660228 -1.336432
-17.847115 16.784303 -1.337575
-17.764514 16.913224 -1.339137
-17.681384 17.042129 -1.340728
-17.588846 17.162363 -1.341671
-17.498214 17.284786 -1.342822
-17.390078 17.390078 -1.342687
-17.263023 17.476183 -1.341132
-17.114608 17.539904 -1.337938
-16.942501 17.578019 -1.332890
-16.756993 17.600420 -1.326767
-16.596073 17.646966 -1.322574
-16.434494 17.691426 -1.318324
-16.292901 17.756262 -1.315681
-16.168877 17.839606 -1.314480
-16.017117 17.891572 -1.311043
-15.854760 17.930396 -1.306734
-15.690543 17.965627 -1.302261
-15.491588 17.959056 -1.294870
-15.316647 17.978118 -1.289444
-15.147612 18.002313 -1.284489
-14.974595 18.019982 -1.279169
-14.914522 18.173397 -1.283539
-14.889537 18.371675 -1.291066
-14.934279 18.659791 -1.304849
-14.953473 18.920587 -1.316645
-14.867044 19.050356 -1.319302
-14.660150 19.024784 -1.311277
-14.383019 18.903928 -1.296840
-13.997989 18.634044 -1.272409
-13.126831 17.699483 -1.203071
-12.373120 16.898955 -1.143475
-11.996033 16.596631 -1.118016
-11.841036 16.595733 -1.113041
-11.690858 16.599743 -1.108477
-11.748077 16.900317 -1.123714
-12.143397 17.699757 -1.171893
-12.304531 18.172649 -1.198182
-12.373642 18.518464 -1.215953
-12.344094 18.721912 -1.224316
-12.304507 18.913386 -1.231876
-12.265850 19.109463 -1.239722
-12.190941 19.251600 -1.244067
-12.052026 19.293126 -1.241948
-11.944239 19.384274 -1.243074
-11.806766 19.427072 -1.241150
-11.673451 19.475976 -1.239675
-11.640460 19.693973 -1.248980
-11.629976 19.954752 -1.260969
-11.700649 20.362184 -1.282155
-11.338172 20.014672 -1.255868
-10.314254 18.470558 -1.154986
-10.188327 18.510968 -1.153582
-11.546133 21.286092 -1.322085
-11.769382 22.018964 -1.363093
-11.831133 22.464979 -1.386183
-11.913677 22.962352 -1.412336
-11.804872 23.098248 -1.416213
-11.560670 22.967106 -1.403796
-11.285136 22.766487 -1.387275
-11.021445 22.581679 -1.371867
-10.754505 22.382126 -1.355710
-10.371469 21.928629 -1.324361
-9.975778 21.431261 -1.290602
-9.726890 21.236189 -1.275237
-9.572522 21.242475 -1.272063
-9.378235 21.156959 -1.263472
-9.153421 20.996599 -1.250518
-8.942550 20.861389 -1.239174
-8.640804 20.503988 -1.214772
-8.367014 20.199758 -1.193683
-8.121843 19.953280 -1.176151
-7.888831 19.726604 -1.159914
-7.754939 19.742299 -1.158017
-7.618779 19.750942 -1.155761
-7.517909 19.851352 -1.158915
-7.506080 20.193353 -1.176170
-7.451086 20.428346 -1.187172
-7.392227 20.659890 -1.197969
-7.282329 20.753328 -1.200774
-7.306189 21.237527 -1.226172
-8.628984 25.592017 -1.474499
-8.612133 26.069299 -1.498925
-8.587242 26.539590 -1.522907
-8.481873 26.773715 -1.533326
-8.359810 26.961927 -1.541139
-8.245652 27.182271 -1.550812
-8.126920 27.394865 -1.560067
-7.947806 27.406734 -1.557936
-7.726469 27.267861 -1.547318
-7.577295 27.380824 -1.551060
-6.884085 25.483157 -1.441142
-5.839115 22.153972 -1.250818
-5.867227 22.828080 -1.286821
-5.589580 22.314855 -1.255934
-5.372636 22.021169 -1.237525
-5.587270 23.526888 -1.320191
-1.656761 8.069995 -0.449776
-4.645344 23.353723 -1.299992
-3.603151 18.713645 -1.040450
-3.969532 24.670596 -1.364232
-3.671489 23.746359 -1.311853
-3.512563 23.679778 -1.306960
-3.443061 24.234849 -1.336404
-3.258534 23.992217 -1.321897
-3.106927 23.978327 -1.320057
-2.968398 24.067133 -1.323918
-2.823079 24.105476 -1.325050
-2.673585 24.108524 -1.324290
-2.517657 24.048533 -1.320122
-2.361105 23.972700 -1.315139
-2.207366 23.915219 -1.311218
-2.058711 23.906579 -1.310027
-1.912191 23.921341 -1.310168
-1.766625 23.949549 -1.311095
-1.621816 23.992136 -1.312856
-1.472434 23.966813 -1.310952
-1.322651 23.926605 -1.308284
-1.173432 23.885759 -1.305632
-1.025464 23.860268 -1.303870
-0.879083 23.867258 -1.303933
-0.735637 23.970521 -1.309303
-0.596162 24.284967 -1.326254
-0.454056 24.663739 -1.346762
-0.306350 24.962367 -1.362940
-0.154478 25.175726 -1.374512
0.000000 25.286776 -1.380549
0.155435 25.331674 -1.383026
0.310779 25.323251 -1.382644
0.465985 25.311720 -1.382145
0.622308 25.350027 -1.384419
0.779511 25.400144 -1.387391
0.938279 25.474445 -1.391738
1.096531 25.513827 -1.394231
1.252935 25.504070 -1.394091
1.406776 25.448417 -1.391495
1.559409 25.382510 -1.388388
1.713101 25.342549 -1.386751
1.871660 25.373481 -1.389046
2.033401 25.437670 -1.393217
2.195022 25.489470 -1.396766
2.354476 25.509050 -1.398604
2.508580 25.470037 -1.397282
2.660748 25.415327 -1.395150
2.816635 25.398447 -1.395146
2.976079 25.411897 -1.396862
3.141780 25.472880 -1.401247
3.311219 25.554990 -1.406855
3.477911 25.607471 -1.410893
3.645066 25.656712 -1.414812
3.813763 25.710299 -1.419030
3.986562 25.784183 -1.424431
4.168529 25.907357 -1.432622
4.357951 26.063923 -1.442731
4.557050 26.262924 -1.455267
4.761045 26.473204 -1.468510
4.965575 26.670054 -1.481092
5.167193 26.836794 -1.492085
5.367145 26.982458 -1.501986
5.562570 27.094977 -1.510121
5.755589 27.187267 -1.517204
5.942370 27.243460 -1.522347
6.123108 27.267437 -1.525757
6.300063 27.271603 -1.528124
6.461635 27.208667 -1.526791
6.614497 27.111266 -1.523574
6.746861 26.934978 -1.515965
6.871848 26.736835 -1.507158
7.002020 26.566110 -1.499928
7.145698 26.451584 -1.495909
7.301417 26.383931 -1.494589
7.456176 26.313957 -1.493188
7.605872 26.227630 -1.490910
7.759171 26.155230 -1.489473
7.912675 26.084593 -1.488187
8.070146 26.027709 -1.487739
8.248858 26.038182 -1.491203
8.435262 26.069882 -1.495954
8.630257 26.124160 -1.502079
8.820207 26.159147 -1.507174
8.993897 26.143330 -1.509414
9.154681 26.089196 -1.509503
9.299815 25.991242 -1.507109
9.426798 25.845077 -1.501960
9.555058 25.705650 -1.497236
9.692186 25.592619 -1.494088
9.841794 25.513891 -1.492989
10.008413 25.479129 -1.494521
10.170074 25.431023 -1.495331
10.313197 25.336872 -1.493488
10.459814 25.252225 -1.492254
10.596144 25.143865 -1.489664
10.732743 25.037595 -1.487242
10.889001 24.977765 -1.487629
11.052034 24.932990 -1.488973
11.231893 24.924802 -1.492572
11.414863 24.921448 -1.496537
11.594719 24.909278 -1.500050
11.775776 24.897786 -1.503681
11.957668 24.886133 -1.507380
12.146445 24.886675 -1.511899
12.348630 24.911967 -1.518010
12.553869 24.940254 -1.524399
12.765469 24.977818 -1.531454
12.975254 25.008428 -1.538183
13.196780 25.058072 -1.546188
13.419431 25.105990 -1.554196
13.671499 25.204351 -1.565449
13.994311 25.425985 -1.584518
14.368461 25.730751 -1.608975
14.794336 26.115655 -1.638689
15.312711 26.648116 -1.677964
16.140633 27.694153 -1.750033
17.480985 29.575296 -1.875648
18.428492 30.746081 -1.957033
18.858402 31.029965 -1.982431
19.183242 31.132432 -1.996460
19.496207 31.209922 -2.009063
19.850030 31.346622 -2.025665
20.187273 31.450569 -2.040348
20.458102 31.446361 -2.048181
20.640365 31.304614 -2.047159
20.733827 31.030365 -2.037506
20.787005 30.700474 -2.024182
20.854390 30.396570 -2.012543
20.922166 30.097797 -2.001224
20.979313 29.788336 -1.989169
21.022417 29.463842 -1.976077
21.064292 29.142658 -1.963168
21.126634 28.854325 -1.952440
21.222156 28.614765 -1.945005
21.361326 28.436077 -1.941732
21.547073 28.319806 -1.942784
21.760949 28.239640 -1.946408
21.995093 28.184107 -1.951846
22.250884 28.153979 -1.959178
22.500349 28.113296 -1.965917
22.765842 28.089971 -1.974017
23.035765 28.069161 -1.982451
23.382244 28.137497 -1.997373
23.945757 28.458546 -2.030555
24.727206 29.023886 -2.081679
25.380096 29.422585 -2.121404
25.685116 29.409385 -2.131776
25.808912 29.187704 -2.127146
25.867198 28.894392 -2.117298
25.862494 28.534865 -2.102542
25.870387 28.193959 -2.089080
25.913935 27.895867 -2.078735
25.999754 27.646105 -2.071972
26.124293 27.439203 -2.068441
26.279215 27.264955 -2.067422
26.431898 27.088727 -2.066318
26.588956 26.917271 -2.065646
26.759753 26.759753 -2.066119
26.921360 26.592996 -2.065960
27.070933 26.414535 -2.064961
27.219311 26.235222 -2.063961
27.399605 26.086592 -2.065456
27.628799 25.983479 -2.070675
27.906927 25.924208 -2.079559
28.110147 25.793482 -2.082870
28.127197 25.493006 -2.072503
28.178302 25.226131 -2.064825
28.440922 25.148579 -2.072722
28.816810 25.167582 -2.088822
28.902302 24.931297 -2.083891
28.346971 24.150501 -2.033129
26.975229 22.697656 -1.924718
24.622092 20.460944 -1.747828
22.447082 18.421844 -1.585378
21.068589 17.075281 -1.480591
20.257831 16.213263 -1.416597
19.864038 15.699110 -1.382298
19.785095 15.440440 -1.370186
19.875194 15.315460 -1.369891
19.945168 15.175244 -1.368270
19.978423 15.007894 -1.364209
19.960020 14.803360 -1.356724
19.701930 14.425409 -1.333140
19.141218 13.835258 -1.289430
18.869568 13.463414 -1.265542
19.166196 13.498358 -1.279857
19.275357 13.399061 -1.281632
19.805529 13.588119 -1.311315
20.167078 13.654940 -1.329681
20.520208 13.711165 -1.347391
20.967932 13.824983 -1.371194
21.369773 13.902562 -1.391867
21.719693 13.941286 -1.409060
22.113344 14.003121 -1.428997
22.401038 13.993475 -1.442012
22.665810 13.966263 -1.453513
22.570736 13.717322 -1.441991
20.736872 12.429202 -1.319932
9.734802 5.753922 -0.617376
26.759355 15.595817 -1.690962
27.538837 15.824543 -1.734050
30.918628 17.515187 -1.940063
32.906832 18.375700 -2.057704
33.572061 18.477863 -2.092172
33.879051 18.376884 -2.104237
34.085624 18.219146 -2.110084
34.178018 17.999780 -2.108927
34.273034 17.782058 -2.108017
34.377288 17.569276 -2.107759
34.438496 17.334882 -2.104951
34.376086 17.039907 -2.094706
34.218091 16.700831 -2.078795
34.134519 16.401473 -2.067565
34.245536 16.196932 -2.068231
34.293065 15.962664 -2.065147
34.019272 15.581972 -2.042863
33.143615 14.935546 -1.984739
33.184357 14.709614 -1.981736
33.435272 14.576032 -1.991342
33.432502 14.331347 -1.985902
33.550279 14.138780 -1.987708
34.302922 14.208735 -2.027095
35.434945 14.423547 -2.088721
35.795116 14.314760 -2.104735
34.265743 13.459869 -2.009914
41.282229 12.799960 -2.359684
40.719049 12.351988 -2.323117
41.014487 12.167296 -2.335669
41.738881 12.104051 -2.372647
40.822260 11.567168 -2.316464
40.525876 11.215020 -2.295697
44.018448 11.891256 -2.489363
37.872549 8.504565 -2.119169
41.317565 9.012227 -2.308798
41.484628 8.782363 -2.315079
41.305803 8.480038 -2.302152
41.361765 8.227367 -2.302414
41.638992 8.017228 -2.315064
42.022549 7.823985 -2.333676
42.114100 7.573966 -2.336136
42.152627 7.314175 -2.335739
42.073633 7.034814 -2.328926
42.020380 6.761136 -2.323638
42.055041 6.502244 -2.323305
40.945661 6.073715 -2.259917
39.598996 5.625856 -2.183644
39.364355 5.346320 -2.168855
39.307214 5.093126 -2.163944
39.063043 4.817967 -2.148834
38.697580 4.532013 -2.127160
38.313259 4.248860 -2.104562
37.935546 3.971498 -2.082436
37.434089 3.686936 -2.053629
36.898450 3.405713 -2.023059
36.498928 3.143100 -2.000059
36.228634 2.895994 -1.984236
36.041503 2.658581 -1.973057
35.813151 2.420892 -1.959706
35.555871 2.184423 -1.944857
35.324275 1.952709 -1.931497
35.153930 1.727002 -1.921568
34.983172 1.503503 -1.911693
34.702708 1.278176 -1.895903
34.363382 1.054586 -1.876976
33.947841 0.833373 -1.853964
33.412333 0.615116 -1.824478
32.719325 0.401547 -1.786469
32.061630 0.196730 -1.750460
31.631695 -0.000000 -1.726954
31.263243 -0.191831 -1.706870
30.940692 -0.379718 -1.689356
30.644645 -0.564163 -1.673349
30.382824 -0.745856 -1.659271
30.147357 -0.925200 -1.646691
29.926521 -1.102259 -1.634967
29.751457 -1.278655 -1.625801
29.615190 -1.454901 -1.618812
29.494588 -1.630446 -1.612736
29.484132 -1.811397 -1.612741
29.643639 -2.003846 -1.622108
29.737472 -2.193568 -1.627949
29.734221 -2.376853 -1.628538
29.671460 -2.555153 -1.625929
29.517844 -2.724486 -1.618397
29.325268 -2.888287 -1.608780
29.107980 -3.047334 -1.597855
28.926979 -3.207942 -1.588970
28.766429 -3.368940 -1.581257
28.619250 -3.529848 -1.574327
28.487057 -3.691133 -1.568272
28.342249 -3.849339 -1.561571
28.203033 -4.006824 -1.555226
28.048640 -4.160623 -1.548090
27.887738 -4.311799 -1.540641
27.747292 -4.464577 -1.534367
27.607805 -4.616092 -1.528191
27.471695 -4.766791 -1.522247
27.349576 -4.918655 -1.517124
27.259653 -5.075349 -1.513835
27.180389 -5.233349 -1.511188
27.179405 -5.406320 -1.512949
27.237266 -5.591782 -1.518051
27.230134 -5.764664 -1.519597
27.184946 -5.929607 -1.519077
27.084645 -6.082060 -1.515529
26.928702 -6.220848 -1.508911
26.704841 -6.341984 -1.498519
26.420426 -6.445949 -1.484751
26.152721 -6.550916 -1.471938
25.953479 -6.670511 -1.463000
25.924329 -6.832867 -1.463693
25.943673 -7.008490 -1.467185
25.914303 -7.171454 -1.467985
25.860207 -7.327604 -1.467440
25.752458 -7.468074 -1.463899
25.614015 -7.598615 -1.458652
25.476810 -7.728306 -1.453512
25.361470 -7.863572 -1.449657
25.261080 -8.002673 -1.446698
25.172680 -8.144960 -1.444470
25.134002 -8.303153 -1.445147
24.999243 -8.429116 -1.440346
24.731371 -8.508150 -1.427893
24.241809 -8.506434 -1.402615
24.283874 -8.688909 -1.408107
26.809877 -9.778702 -1.558028
27.084352 -10.067536 -1.577539
27.251102 -10.320270 -1.590910
27.494341 -10.605738 -1.608879
27.445438 -10.780796 -1.609858
27.248932 -10.897071 -1.602223
27.045744 -11.008781 -1.594218
26.811872 -11.105841 -1.584419
26.595469 -11.207880 -1.575665
26.396702 -11.315345 -1.567973
26.183303 -11.414553 -1.559428
26.006241 -11.527774 -1.553067
25.892480 -11.667959 -1.550519
25.867046 -11.847979 -1.553320
25.882133 -12.047561 -1.558636
25.879551 -12.240116 -1.562974
25.854692 -12.423056 -1.566047
25.793235 -12.588910 -1.566974
25.686364 -12.732492 -1.565198
25.512067 -12.841695 -1.559349
25.295908 -12.928035 -1.550957
25.029602 -12.986239 -1.539485
24.727768 -13.022826 -1.525807
24.465866 -13.077278 -1.514569
24.236929 -13.146745 -1.505362
24.111603 -13.270883 -1.502608
24.079585 -13.446424 -1.505726
24.108478 -13.657284 -1.512744
24.191064 -13.900824 -1.523249
24.399336 -14.220357 -1.541829
24.721261 -14.611925 -1.567808
25.110389 -15.050588 -1.598313
25.353757 -15.408698 -1.619792
25.864286 -15.937106 -1.658624
28.796245 -17.988432 -1.853688
31.609165 -20.016283 -2.042631
30.984117 -19.887870 -2.010087
31.112246 -20.240736 -2.026419
31.228653 -20.590281 -2.042191
31.102454 -20.781995 -2.042239
30.974671 -20.972661 -2.042260
30.823696 -21.147431 -2.040823
30.678689 -21.325967 -2.039848
30.467117 -21.457365 -2.034496
30.264814 -21.593909 -2.029797
30.100567 -21.756668 -2.027696
29.917700 -21.905218 -2.024394
29.760714 -22.072049 -2.022898
29.529725 -22.182880 -2.016411
29.299740 -22.292653 -2.010009
29.101333 -22.424954 -2.005800
28.895522 -22.550287 -2.001114
28.802747 -22.763624 -2.004324
28.939062 -23.161247 -2.023662
28.808746 -23.348381 -2.024529
28.983706 -23.786313 -2.047043
29.100048 -24.182123 -2.065700
32.752948 -27.559178 -2.336966
28.205369 -24.330118 -2.033642
28.401091 -24.804507 -2.058689
28.212322 -24.946441 -2.056062
28.238364 -25.279900 -2.069226
28.070706 -25.441805 -2.068341
27.895619 -25.596635 -2.066974
27.789148 -25.814798 -2.070782
27.741554 -26.089519 -2.079126
27.666901 -26.341080 -2.085605
27.487937 -26.494136 -2.084330
26.968847 -26.314924 -2.057174
26.662744 -26.337534 -2.046113
27.487589 -27.487589 -2.122316
24.945119 -25.253136 -1.937939
19.229096 -19.706937 -1.503238
19.425005 -20.153642 -1.528192
25.253182 -26.524247 -1.999469
24.502005 -26.053516 -1.952614
23.765744 -25.583380 -1.906414
23.623833 -25.745629 -1.907667
23.235582 -25.636514 -1.888982
22.672913 -25.326285 -1.855837
23.102613 -26.127108 -1.904096
14.961113 -17.130432 -1.241721
15.007754 -17.398158 -1.254429
14.799096 -17.370636 -1.245873
14.463202 -17.188920 -1.226452
14.133398 -17.007711 -1.207312
13.925485 -16.968252 -1.198423
13.838091 -17.074334 -1.199895
13.672110 -17.082761 -1.194570
13.504754 -17.087526 -1.189086
13.298369 -17.040285 -1.180098
13.055155 -16.941949 -1.167718
12.849504 -16.888395 -1.158571
12.653854 -16.844739 -1.150228
12.457859 -16.797478 -1.141760
12.310413 -16.813312 -1.137680
12.187993 -16.862210 -1.135907
12.077156 -16.926666 -1.135236
11.970857 -16.997311 -1.135026
11.872954 -17.079960 -1.135659
11.768161 -17.152827 -1.135681
11.689837 -17.264803 -1.138324
11.656196 -17.444729 -1.145450
11.638356 -17.651540 -1.154319
11.606734 -17.840832 -1.162018
11.665703 -18.174470 -1.179065
11.464243 -18.104018 -1.169908
11.374031 -18.207779 -1.172082
15.103308 -24.511119 -1.571848
15.140337 -24.912191 -1.591581
14.937330 -24.921429 -1.586286
15.303619 -25.891508 -1.642025
15.202361 -26.084262 -1.648302
15.095932 -26.270863 -1.654209
15.019275 -26.512729 -1.663605
14.803374 -26.509584 -1.657676
14.469865 -26.290009 -1.638363
14.145123 -26.077509 -1.619681
13.859272 -25.928874 -1.605137
12.124444 -23.021919 -1.420549
11.617461 -22.391426 -1.377220
11.485733 -22.473798 -1.377926
11.411451 -22.670659 -1.385677
11.309619 -22.815878 -1.390285
11.199120 -22.945714 -1.393983
11.096494 -23.093870 -1.398821
10.988515 -23.233262 -1.403154
10.860294 -23.331492 -1.405035
10.715929 -23.395503 -1.404904
10.569518 -23.454920 -1.404551
10.397549 -23.456494 -1.400798
10.198625 -23.394143 -1.393311
9.993471 -23.313003 -1.384801
9.790082 -23.231141 -1.376344
9.613546 -23.209154 -1.371520
9.449651 -23.215362 -1.368435
9.336964 -23.347769 -1.372837
9.220393 -23.473009 -1.376848
9.018391 -23.379300 -1.368080
8.777123 -23.176358 -1.353028
8.591748 -23.114090 -1.346289
8.068535 -22.121182 -1.285549
8.097211 -22.630189 -1.312218
8.443327 -24.061965 -1.392209
8.608113 -25.021940 -1.444669
8.191148 -24.293473 -1.399682
9.248387 -27.995267 -1.609663
8.787761 -28.342147 -1.620032
8.544990 -28.169057 -1.607111
8.154381 -27.487434 -1.565338
7.970380 -27.484577 -1.562361
7.856141 -27.725494 -1.573286
7.699102 -27.820981 -1.575994
7.511690 -27.806392 -1.572527
7.287732 -27.650118 -1.561131
7.043769 -27.405743 -1.544864
6.816126 -27.211498 -1.531528
6.616657 -27.120117 -1.524072
6.415654 -27.015049 -1.515926
6.238124 -27.003483 -1.513101
6.062179 -26.996111 -1.510575
5.897648 -27.038426 -1.510889
5.724432 -27.040093 -1.508991
5.548731 -27.027569 -1.506364
5.366319 -26.978305 -1.501755
5.165438 -26.827681 -1.491578
4.970971 -26.699038 -1.482702
4.771533 -26.531518 -1.471745
4.563097 -26.297773 -1.457198
4.356426 -26.054801 -1.442227
4.180043 -25.978919 -1.436579
4.039216 -26.124737 -1.443245
3.905315 -26.327498 -1.453095
3.757252 -26.446359 -1.458356
3.607773 -26.563631 -1.463574
3.454314 -26.659358 -1.467653
3.314405 -26.872485 -1.478239
3.173953 -27.101487 -1.489737
3.005117 -27.098047 -1.488506
2.890292 -27.607918 -1.515511
3.152611 -32.008995 -1.756009
2.862153 -31.009369 -1.700174
2.702276 -31.379912 -1.719548
2.554384 -31.955121 -1.750177
2.369240 -32.119000 -1.758323
2.172117 -32.132940 -1.758324
1.973902 -32.129216 -1.757424
1.776603 -32.138540 -1.757305
1.588596 -32.336619 -1.767569
1.378057 -32.064321 -1.752190
1.194703 -32.436381 -1.772087
0.973001 -31.704940 -1.731768
0.734196 -29.907830 -1.633330
0.232330 -18.931010 -1.033629
0.113419 -18.484207 -1.009177
0.000000 -18.170036 -0.992006
-0.112670 -18.362149 -1.002513
-0.226619 -18.465626 -1.008219
-0.336895 -18.299693 -0.999254
-0.446772 -18.199478 -0.993912
-0.557321 -18.160136 -0.991932
-0.664857 -18.050969 -0.986173
-0.777187 -18.083421 -0.988188
-0.879485 -17.902338 -0.978569
-0.988606 -17.883770 -0.977867
-1.226744 -19.967723 -1.092207
-1.532417 -22.669619 -1.240488
-1.773567 -24.043656 -1.316246
-2.026689 -25.353707 -1.388618
-2.335640 -27.122380 -1.486245
-3.260488 -35.325040 -1.936792
-3.602211 -36.573861 -2.006437
-3.880650 -37.067774 -2.034801
-4.191540 -37.796385 -2.076170
-4.482628 -38.275893 -2.103981
-4.759449 -38.588594 -2.122735
-5.044533 -38.932189 -2.143298
-5.323317 -39.194988 -2.159523
-5.597023 -39.396043 -2.172452
-5.862550 -39.522104 -2.181346
-6.131324 -39.656016 -2.190772
-6.397042 -39.757537 -2.198508
-6.652520 -39.787216 -2.202365
-6.888947 -39.701979 -2.199945
-7.135001 -39.673294 -2.200740
-7.408716 -39.792143 -2.209813
-7.633214 -39.644543 -2.204176
-7.784849 -39.137079 -2.178576
-8.183379 -39.860796 -2.221616
-8.880632 -41.948815 -2.340983
-9.146552 -41.933392 -2.343210
-9.453562 -42.098625 -2.355640
-9.883940 -42.785431 -2.397419
-10.289599 -43.327464 -2.431283
-10.652986 -43.664078 -2.453794
-11.051844 -44.121436 -2.483260
-11.431001 -44.475489 -2.507088
-11.746401 -44.566589 -2.516239
-12.093912 -44.768632 -2.531788
-12.409276 -44.841360 -2.540159
-12.703530 -44.832652 -2.544034
-13.023542 -44.909598 -2.552887
-13.292089 -44.806026 -2.551587
-13.519385 -44.567439 -2.542677
-13.704189 -44.198535 -2.526380
-13.842620 -43.695342 -2.502425
-13.985186 -43.222386 -2.480207
-14.250069 -43.135573 -2.480196
-14.322708 -42.478577 -2.447428
-14.248300 -41.416756 -2.391242
-14.367147 -40.943788 -2.368980
-15.420522 -43.097473 -2.499019
-3.093863 -7.876266 -0.461996
-16.203486 -40.518014 -2.382439
-16.461388 -40.441396 -2.383828
-16.457888 -39.732855 -2.347971
-16.573904 -39.328647 -2.330051
-16.777139 -39.138103 -2.324817
-17.125287 -39.282886 -2.339615
-17.322698 -39.079381 -2.333781
-17.546459 -38.937517 -2.331695
-17.784642 -38.828241 -2.331642
-18.000649 -38.671328 -2.328808
-18.225906 -38.535441 -2.327316
-18.457060 -38.412577 -2.326692
-18.714315 -38.343490 -2.329419
-18.949370 -38.228212 -2.329435
-19.198094 -38.140063 -2.331198
-19.448747 -38.054794 -2.333237
-19.716423 -38.001318 -2.337332
-19.975125 -37.928807 -2.340366
-20.217035 -37.823412 -2.341473
-20.450373 -37.701671 -2.341661
-20.677796 -37.569076 -2.341262
-20.897347 -37.422546 -2.340077
-21.099899 -37.246530 -2.337123
-21.305455 -37.077055 -2.334647
-21.484551 -36.863265 -2.329443
-21.664285 -36.652834 -2.324502
-21.825622 -36.413850 -2.317795
-21.964935 -36.141511 -2.308996
-22.122176 -35.902020 -2.302324
-22.287458 -35.678213 -2.296698
-22.483609 -35.505499 -2.294418
-22.684279 -35.340755 -2.292723
-22.888635 -35.182358 -2.291516
-23.096518 -35.029787 -2.290766
-23.304373 -34.877459 -2.290112
-23.505048 -34.714771 -2.288857
-23.716407 -34.568138 -2.288741
-23.916135 -34.404802 -2.287600
-24.123066 -34.252123 -2.287247
-24.349522 -34.126928 -2.288820
-24.556138 -33.973663 -2.288604
-24.787143 -33.853774 -2.290730
-25.047975 -33.773285 -2.295640
-25.305718 -33.686829 -2.300275
-25.621988 -33.675560 -2.310197
-25.932481 -33.653125 -2.319531
-26.236525 -33.619000 -2.328231
-26.554471 -33.599295 -2.338106
-26.908839 -33.621531 -2.351099
-27.403552 -33.812279 -2.376151
-27.806227 -33.881986 -2.392995
-27.912992 -33.589664 -2.384401
-27.909806 -33.169654 -2.366698
-27.966451 -32.825992 -2.354377
-28.160705 -32.646083 -2.353823
-28.870222 -33.056323 -2.396129
-29.511553 -33.375079 -2.432315
-29.855741 -33.349707 -2.443770
-29.920340 -33.012008 -2.432432
-30.085920 -32.788114 -2.429492
-30.426138 -32.753169 -2.440690
-30.794905 -32.744893 -2.454108
-31.078057 -32.642304 -2.460664
-31.296955 -32.470911 -2.462174
-31.495968 -32.278639 -2.462203
-31.655893 -32.046773 -2.459286
-31.769022 -31.769022 -2.452885
-31.856985 -31.468420 -2.444722
-31.980754 -31.205306 -2.439480
-32.073152 -30.913576 -2.432013
-32.180731 -30.638603 -2.425870
-32.288721 -30.365898 -2.419919
-32.400207 -30.098253 -2.414388
-32.638247 -29.948404 -2.418387
-32.907738 -29.825835 -2.424749
-33.136175 -29.664580 -2.428123
-33.367951 -29.505250 -2.431795
-33.619042 -29.361681 -2.436918
-33.853683 -29.202388 -2.440892
-33.969960 -28.941066 -2.436426
-34.183900 -28.763218 -2.439066
-34.478698 -28.651779 -2.447510
-34.730428 -28.502526 -2.452918
-34.968702 -28.340789 -2.457419
-35.044294 -28.047541 -2.450591
-35.114525 -27.752000 -2.443548
-35.104056 -27.395474 -2.431076
-35.134681 -27.074141 -2.421646
-35.243796 -26.815177 -2.417781
-35.279368 -26.502042 -2.409020
-35.387955 -26.245496 -2.405393
-35.417375 -25.931984 -2.396532
-35.445667 -25.620102 -2.387764
-35.513281 -25.338684 -2.381800
-35.574696 -25.054528 -2.375564
-35.719904 -24.830314 -2.375042
-35.748767 -24.526409 -2.366910
-35.784219 -24.229161 -2.359369
-35.710431 -23.860947 -2.344807
-35.664944 -23.515302 -2.332302
-35.629819 -23.179740 -2.320660
-35.509968 -22.792892 -2.303701
-35.449444 -22.448113 -2.290795
-35.386505 -22.105234 -2.277920
-35.379399 -21.800146 -2.268809
-35.361807 -21.491071 -2.259182
-35.375285 -21.203130 -2.251689
-35.367969 -20.904843 -2.243016
-35.304378 -20.576005 -2.230934
-35.288770 -20.277859 -2.222044
-35.175027 -19.926407 -2.207141
-35.067085 -19.582020 -2.192787
-34.965837 -19.244989 -2.179031
-34.841549 -18.898968 -2.164018
-34.742736 -18.570379 -2.150763
-34.680601 -18.264464 -2.139938
-34.645628 -17.975372 -2.130934
-34.619988 -17.693313 -2.122640
-34.636538 -17.434568 -2.117056
-34.681873 -17.191482 -2.113339
-34.842901 -17.005782 -2.116753
-35.081831 -16.856652 -2.124945
-35.337653 -16.713465 -2.134188
-35.575311 -16.559521 -2.142365
-35.753668 -16.376384 -2.147014
-35.998346 -16.221977 -2.155689
-36.208118 -16.049955 -2.162312
-36.364123 -15.852858 -2.165779
-36.492606 -15.643107 -2.167674
-36.673111 -15.454806 -2.172722
-36.835547 -15.257783 -2.176758
-36.946008 -15.038615 -2.177791
-37.021329 -14.805133 -2.176835
-36.952663 -14.515313 -2.167520
-36.819147 -14.202712 -2.154536
-36.627522 -13.871216 -2.138302
-36.489362 -13.563476 -2.125338
-36.290048 -13.236523 -2.108958
-35.929101 -12.855638 -2.083359
-35.466393 -12.445133 -2.052062
-34.667543 -11.926418 -2.001569
-32.930844 -11.103452 -1.897329
-30.831557 -10.185371 -1.772744
-29.504371 -9.546537 -1.693034
-28.787129 -9.119720 -1.648634
-28.651314 -8.883621 -1.637704
-28.332064 -8.594438 -1.616411
-27.721185 -8.223725 -1.578650
-32.355467 -9.382912 -1.839247
-31.494768 -8.924182 -1.787174
-30.883335 -8.546570 -1.749470
-31.374603 -8.475615 -1.774319
-31.543723 -8.313968 -1.780965
-31.409115 -8.072708 -1.770535
-31.223440 -7.821064 -1.757330
-31.017528 -7.567532 -1.743095
-30.886320 -7.335021 -1.733159
-30.664801 -7.083931 -1.718257
-30.348314 -6.814942 -1.698148
-29.919638 -6.526100 -1.671890
-29.622161 -6.271060 -1.653085
-29.407630 -6.037355 -1.639015
-29.363039 -5.840672 -1.634502
-29.391679 -5.659114 -1.634132
-29.364493 -5.467240 -1.630725
-29.288731 -5.267401 -1.624692
-29.076322 -5.045220 -1.611162
-28.893813 -4.831116 -1.599376
-28.633563 -4.607179 -1.583376
-28.332030 -4.380492 -1.565186
-28.269137 -4.193330 -1.560260
-28.155688 -4.000098 -1.552615
-28.068858 -3.812208 -1.546508
-28.141362 -3.646341 -1.549241
-28.864387 -3.560083 -1.587812
-27.432363 -3.212703 -1.507925
-25.151169 -2.789212 -1.381563
-20.264135 -2.121466 -1.112381
-17.509609 -1.724546 -0.960575
-28.363076 -2.617901 -1.555084
-27.402074 -2.359725 -1.501572
-28.195285 -2.253836 -1.544251
-28.604496 -2.109994 -1.565925
-28.588776 -1.932539 -1.564386
-28.773739 -1.767754 -1.573884
-28.597607 -1.580862 -1.563690
-28.565523 -1.403334 -1.561435
-30.543479 -1.312694 -1.669082
-31.408086 -1.156828 -1.715909
-31.208363 -0.957761 -1.704644
-31.349041 -0.769576 -1.712038
-31.286989 -0.575989 -1.708424
-31.043907 -0.380985 -1.694991
-30.864967 -0.189387 -1.685126
-24.197929 0.000000 -1.506505
-23.812558 0.146114 -1.482541
-23.708903 0.290967 -1.476171
-23.787994 0.437933 -1.481234
-23.957381 0.588121 -1.491979
-24.066430 0.738581 -1.499024
-24.139598 0.889114 -1.503893
-24.090068 1.035340 -1.501174
-24.095305 1.183726 -1.501925
-24.192026 1.337323 -1.508437
-24.457016 1.502550 -1.525506
-24.796608 1.676197 -1.547301
-25.002582 1.844301 -1.560830
-24.927904 1.992652 -1.556902
-24.393845 2.100672 -1.524323
-27.440491 2.532747 -1.715641
-29.036819 2.859877 -1.816510
-29.526432 3.091142 -1.848291
-29.787631 3.303386 -1.865875
-29.561928 3.462104 -1.853033
-29.313305 3.615451 -1.838805
-29.151955 3.777286 -1.830103
-28.920620 3.927891 -1.817059
-28.743400 4.083594 -1.807465
-28.586400 4.240392 -1.799194
-28.424536 4.394795 -1.790670
-28.252401 4.545850 -1.781550
-28.087020 4.696218 -1.772905
-27.904242 4.841845 -1.763210
-27.748967 4.990484 -1.755300
-27.570342 5.133195 -1.745961
-27.427867 5.280999 -1.738957
-27.254169 5.421191 -1.730021
-27.068499 5.557134 -1.720367
-26.889363 5.692522 -1.711170
-26.664691 5.816128 -1.699112
-26.480381 5.946369 -1.689660
-26.366162 6.090895 -1.684725
-26.327043 6.252263 -1.684645
-26.343099 6.427083 -1.688164
-26.368485 6.604962 -1.692357
-26.303928 6.760583 -1.690844
-26.252046 6.919243 -1.690206
-26.153495 7.065172 -1.686620
-25.970088 7.186891 -1.677605
-25.772092 7.302636 -1.667678
-25.582206 7.418702 -1.658305
-25.466460 7.554842 -1.653776
-25.438715 7.716750 -1.655018
-25.351898 7.860605 -1.652477
-25.265953 8.004217 -1.650045
-25.128657 8.130716 -1.644306
-24.952429 8.243169 -1.636053
-24.799646 8.361817 -1.629369
-24.687192 8.492952 -1.625374
-24.638921 8.645781 -1.625658
-24.645525 8.818310 -1.629633
-24.579331 8.965127 -1.628863
-24.537348 9.120788 -1.629759
-24.439721 9.255571 -1.627016
-24.259016 9.357735 -1.618778
-24.096632 9.465357 -1.611788
-23.872400 9.546768 -1.600677
-23.707956 9.650158 -1.593591
-23.545442 9.752842 -1.586660
-23.330126 9.831797 -1.576186
-23.205446 9.947365 -1.571857
-23.039571 10.044050 -1.564766
-22.930416 10.164354 -1.561559
-22.814595 10.280968 -1.557939
-22.722603 10.407718 -1.555988
-22.678418 10.556302 -1.557369
-22.644465 10.710034 -1.559521
-22.667658 10.891701 -1.565691
-22.683601 11.071190 -1.571455
-22.668485 11.236557 -1.575155
-22.598095 11.374925 -1.575084
-22.514068 11.506314 -1.574119
-22.433227 11.639148 -1.573430
-22.355078 11.773254 -1.572986
-22.312329 11.926188 -1.575098
-22.212487 12.048634 -1.573239
-22.141573 12.186590 -1.573483
-21.998033 12.284052 -1.568609
-21.859816 12.383433 -1.564142
-21.766999 12.507893 -1.562963
-21.653893 12.620265 -1.560373
-21.589688 12.760955 -1.561359
-21.519158 12.898087 -1.561952
-21.403641 13.008022 -1.559332
-21.279316 13.111930 -1.556106
-21.134319 13.202182 -1.551398
-20.990126 13.291851 -1.546771
-20.870481 13.396199 -1.543982
-20.757414 13.504179 -1.541719
-20.625439 13.599164 -1.538085
-20.467983 13.676269 -1.532573
-20.266869 13.722508 -1.523790
-20.047259 13.753964 -1.513595
-19.785295 13.753539 -1.500160
-19.411790 13.671325 -1.478173
-19.005120 13.560131 -1.453514
-18.752544 13.554325 -1.440531
-18.537013 13.572478 -1.430345
-18.413541 13.656413 -1.427256
-18.332872 13.771747 -1.427527
-18.245642 13.882163 -1.427340
-18.252640 14.065150 -1.434612
-18.255165 14.246471 -1.441654
-18.292018 14.456698 -1.451543
-18.346744 14.683733 -1.463007
-18.394586 14.908105 -1.474089
-18.429148 15.124411 -1.484268
-18.420357 15.307307 -1.491097
-18.391233 15.474859 -1.496397
-18.345710 15.629821 -1.500468
-18.269968 15.759783 -1.502154
-18.216600 15.909733 -1.505764
-18.153988 16.052468 -1.508702
-18.107505 16.210427 -1.513077
-18.041381 16.351755 -1.515907
-17.967955 16.487148 -1.518209
-17.881884 16.611420 -1.519521
-17.773884 16.715433 -1.519030
-17.676899 16.829807 -1.519539
-17.582417 16.946740 -1.520327
-17.486591 17.062587 -1.521065
-17.388552 17.176461 -1.521676
-17.274627 17.274627 -1.520954
-17.142795 17.354470 -1.518694
-16.992399 17.414659 -1.514808
-16.837270 17.468840 -1.510506
-16.658910 17.497401 -1.504109
-16.498159 17.542852 -1.499285
-16.336885 17.586352 -1.494408
-16.191841 17.646126 -1.491016
-16.071916 17.732626 -1.489964
-15.929770 17.794004 -1.486881
-15.780669 17.846606 -1.483157
-15.624092 17.889541 -1.478730
-15.447778 17.908267 -1.472415
-15.297293 17.955401 -1.468545
-15.172100 18.031415 -1.467121
-15.107792 18.180268 -1.471662
-15.161257 18.474045 -1.487884
-15.201496 18.756591 -1.503099
-15.226707 19.025169 -1.517106
-15.211996 19.247695 -1.527379
-15.150501 19.413573 -1.533136
-15.050894 19.531861 -1.535156
-14.918954 19.608320 -1.533941
-14.786154 19.683245 -1.532676
-14.656548 19.762067 -1.531782
-14.527321 19.841119 -1.530971
-14.414772 19.942982 -1.531978
-14.287391 20.024407 -1.531469
-14.159656 20.105167 -1.530972
-14.037834 20.194270 -1.531169
-13.902937 20.264396 -1.529989
-13.755313 20.315319 -1.527433
-13.581423 20.326036 -1.521944
-13.409821 20.338268 -1.516670
-13.240234 20.351702 -1.511585
-13.059915 20.346570 -1.505224
-12.895364 20.364005 -1.500632
-12.729521 20.377674 -1.495855
-12.576313 20.410065 -1.492540
-12.441435 20.471368 -1.491412
-12.264919 20.462781 -1.485276
-12.174551 20.597578 -1.489610
-12.090393 20.744736 -1.494859
-11.940793 20.780098 -1.492099
-11.499315 20.299129 -1.452470
-10.701124 19.163356 -1.366478
-10.227880 18.582832 -1.320582
-11.714344 21.596201 -1.529589
-11.501920 21.518579 -1.519064
-11.713941 22.242454 -1.565062
-11.728586 22.605608 -1.585521
-11.601652 22.700613 -1.587161
-11.389850 22.627745 -1.577151
-11.219565 22.634205 -1.572773
-11.048427 22.636962 -1.568224
-10.837467 22.554786 -1.557895
-10.623332 22.461149 -1.546896
-10.379733 22.299089 -1.531320
-10.101084 22.053146 -1.510146
-9.849034 21.856086 -1.492485
-9.575731 21.602503 -1.471129
-9.298379 21.329112 -1.448598
-9.069211 21.156869 -1.433093
-8.773334 20.818471 -1.406499
-8.494223 20.506869 -1.381899
-8.246421 20.259334 -1.361783
-8.013362 20.038003 -1.343576
-7.834415 19.944626 -1.334066
-7.629430 19.778553 -1.319802
-7.444912 19.658601 -1.308724
-7.331441 19.723527 -1.310027
-7.202123 19.745773 -1.308545
-7.103305 19.852407 -1.312698
-6.975467 19.878827 -1.311590
-6.817312 19.816467 -1.304691
-6.655538 19.739131 -1.296887
-6.466867 19.575485 -1.283504
-6.311849 19.507297 -1.276469
-6.180593 19.509539 -1.274110
-6.066262 19.564813 -1.275265
-5.980893 19.716364 -1.282727
-5.838531 19.680982 -1.278071
-5.708370 19.684399 -1.275994
-5.681250 20.049977 -1.297408
-5.685519 20.544827 -1.327146
-5.684998 21.044437 -1.357141
-5.707017 21.652784 -1.394088
-5.724716 22.273600 -1.431770
-5.528680 22.071728 -1.416586
-5.145765 21.091279 -1.351608
-5.344703 22.505486 -1.440107
-0.240606 1.071468 -0.068368
-4.714697 21.615057 -1.377342
-5.391873 25.469212 -1.620795
-3.978500 25.732038 -1.621050
-3.530104 23.798025 -1.497820
-3.408000 23.988061 -1.508436
-3.369045 24.805901 -1.558535
-3.181594 24.554583 -1.541489
-3.011492 24.416534 -1.531634
-2.854611 24.374717 -1.527883
-2.694193 24.294357 -1.521781
-2.534699 24.211319 -1.515577
-2.381918 24.184017 -1.512924
-2.229901 24.159369 -1.510498
-2.078988 24.142041 -1.508588
-1.929893 24.142789 -1.507867
-1.779919 24.129778 -1.506344
-1.632043 24.143415 -1.506542
-1.480869 24.104114 -1.503494
-1.329212 24.045298 -1.499288
-1.180927 24.038325 -1.498373
-1.035172 24.086146 -1.500930
-0.890931 24.188942 -1.506967
-0.746741 24.332340 -1.515586
-0.601817 24.515303 -1.526724
-0.455690 24.752496 -1.541292
-0.306228 24.952431 -1.553596
-0.154032 25.103042 -1.562885
0.000000 25.188986 -1.568206
0.154789 25.226409 -1.570565
0.309734 25.238138 -1.571384
0.464609 25.236957 -1.571459
0.620000 25.256008 -1.572852
0.775575 25.271871 -1.574107
0.931592 25.292882 -1.575742
1.087279 25.298557 -1.576482
1.242023 25.281956 -1.575892
1.395105 25.237288 -1.573612
1.547630 25.190785 -1.571275
1.700255 25.152502 -1.569508
1.854468 25.140413 -1.569434
2.012469 25.175810 -1.572385
2.170289 25.202259 -1.574839
2.327313 25.214756 -1.576483
2.481113 25.191166 -1.575930
2.632933 25.149639 -1.574313
2.788491 25.144665 -1.575043
2.945230 25.148483 -1.576385
3.105779 25.180990 -1.579587
3.267534 25.217841 -1.583127
3.424112 25.211350 -1.584009
3.581446 25.208901 -1.585206
3.741763 25.224915 -1.587626
3.906626 25.267172 -1.591765
4.082368 25.371866 -1.599908
4.266205 25.515207 -1.610567
4.456743 25.684844 -1.622971
4.649494 25.852937 -1.635364
4.839540 25.993121 -1.646079
5.020666 26.075780 -1.653234
5.197184 26.128009 -1.658536
5.366176 26.138350 -1.661251
5.531155 26.127126 -1.662663
5.695170 26.110143 -1.663775
5.857389 26.084137 -1.664377
6.023851 26.075943 -1.666181
6.182477 26.033186 -1.665842
6.341391 25.991867 -1.665656
6.496046 25.933671 -1.664450
6.646647 25.860630 -1.662348
6.800813 25.802714 -1.661276
6.952323 25.735757 -1.659681
7.106436 25.679360 -1.658825
7.261278 25.626133 -1.658233
7.413391 25.563890 -1.657118
7.571371 25.522179 -1.657394
7.732545 25.490786 -1.658406
7.886362 25.434971 -1.657891
8.040480 25.380422 -1.657520
8.184993 25.296404 -1.655282
8.326953 25.206047 -1.652682
8.477700 25.143333 -1.651950
8.629873 25.085193 -1.651578
8.788461 25.045535 -1.652486
8.942389 24.992302 -1.652563
9.089529 24.920398 -1.651465
9.236382 24.848327 -1.650414
9.387437 24.787918 -1.650196
