-13.500341 -11.645474 -3.043578
-13.458561 -11.466163 -3.018241
-13.382427 -11.260321 -2.985616
-13.291624 -11.045332 -2.950182
-13.279819 -10.898465 -2.932663
-13.315045 -10.791332 -2.925764
-13.446316 -10.761697 -2.940044
-13.608281 -10.755008 -2.960973
-13.677637 -10.674133 -2.961757
-13.703740 -10.559850 -2.953322
-13.667699 -10.399044 -2.931749
-13.566520 -10.191239 -2.896577
-13.561423 -10.057837 -2.882258
-13.624822 -9.975857 -2.882669
-13.708723 -9.908655 -2.887502
-13.786262 -9.836482 -2.891067
-13.818586 -9.732146 -2.885268
-13.830690 -9.614258 -2.875424
-13.846950 -9.500075 -2.866631
-13.963826 -9.454776 -2.878763
-14.326430 -9.572615 -2.941352
-14.628156 -9.644920 -2.991092
-14.839494 -9.654150 -3.022136
-15.043265 -9.655867 -3.051512
-15.160918 -9.600545 -3.063370
-15.209592 -9.501124 -3.061367
-15.225993 -9.381982 -3.053024
-15.142201 -9.202644 -3.024843
-15.078813 -9.037893 -3.001046
-15.078861 -8.912619 -2.990115
-15.012253 -8.749402 -2.966205
-15.049278 -8.647712 -2.962980
-15.037691 -8.518747 -2.950352
-14.998774 -8.375555 -2.932579
-15.110658 -8.316816 -2.944421
-15.173671 -8.230596 -2.946803
-15.401778 -8.232422 -2.981237
-15.571604 -8.200752 -3.004312
-15.652414 -8.121024 -3.010232
-15.797554 -8.073691 -3.028561
-15.834098 -7.970215 -3.026134
-15.843033 -7.853244 -3.018576
-15.890988 -7.755918 -3.018588
-15.863841 -7.622500 -3.004491
-15.871223 -7.506530 -2.997109
-15.921690 -7.411195 -2.997995
-15.940065 -7.301087 -2.992963
-16.017724 -7.218086 -2.999172
-16.083464 -7.129309 -3.003234
-16.155522 -7.042964 -3.008563
-16.242924 -6.962775 -3.016826
-16.307241 -6.872208 -3.020883
-16.387163 -6.787785 -3.027916
-16.464420 -6.701727 -3.034536
-16.527217 -6.609370 -3.038578
-16.589396 -6.516453 -3.042601
-16.619762 -6.410950 -3.040898
-16.659228 -6.309019 -3.040979
-16.696591 -6.206297 -3.040791
-16.705780 -6.093308 -3.035598
-16.700757 -5.975626 -3.027965
-16.704889 -5.861734 -3.022136
-16.689863 -5.741690 -3.012988
-16.709144 -5.633903 -3.010171
-16.777004 -5.542373 -3.016213
-16.843410 -5.449913 -3.022082
-16.919238 -5.359990 -3.029729
-16.999730 -5.270933 -3.038294
-17.058765 -5.174720 -3.043113
-17.141699 -5.085231 -3.052284
-17.210124 -4.990843 -3.058957
-17.260464 -4.890829 -3.062513
-17.296786 -4.786665 -3.063689
-17.311869 -4.676673 -3.061220
-17.327929 -4.567116 -3.059047
-17.337598 -4.456075 -3.055869
-17.374295 -4.352034 -3.057573
-17.431551 -4.252880 -3.062999
-17.504883 -4.157138 -3.071345
-17.623805 -4.071307 -3.087769
-17.730358 -3.981485 -3.102099
-17.804258 -3.883482 -3.110801
-17.908758 -3.791313 -3.124936
-17.985182 -3.692339 -3.134259
-18.047065 -3.589784 -3.141145
-18.094588 -3.483957 -3.145637
-18.117874 -3.373284 -3.146027
-18.136142 -3.261675 -3.145665
-18.102831 -3.141139 -3.136485
-18.080207 -3.023055 -3.129293
-18.066347 -2.906900 -3.123748
-18.011744 -2.784845 -3.111294
-18.068493 -2.680208 -3.118197
-18.201305 -2.585872 -3.138320
-18.203476 -2.472328 -3.136019
-18.236313 -2.362921 -3.139120
-18.200847 -2.244860 -3.130585
-18.058685 -2.114918 -3.103842
-18.038896 -2.000476 -3.098273
-17.949776 -1.879174 -3.080927
-18.011644 -1.773992 -3.089620
-18.330703 -1.691917 -3.142509
-18.459776 -1.589661 -3.162905
-18.574073 -1.484748 -3.180868
-18.188055 -1.341632 -3.113293
-17.483524 -1.181848 -2.991399
-18.623550 -1.144163 -3.185194
-16.777122 -0.514877 -2.865347
-17.551098 -0.430855 -2.997026
-16.948390 -0.312017 -2.893726
-17.060157 -0.209370 -2.912535
-16.657317 -0.102209 -2.843601
-13.864522 4.674768 -2.612840
-16.877209 5.806141 -3.187250
-16.128906 5.659622 -3.052434
-15.648634 5.599171 -2.967988
-15.741568 5.741619 -2.992240
-15.641598 5.814145 -2.979962
-15.460380 5.855004 -2.952227
-15.409983 5.944286 -2.949512
-15.386569 6.043972 -2.952074
-15.319159 6.126257 -2.946297
-15.204154 6.188745 -2.931427
-15.127760 6.266123 -2.924056
-14.992953 6.318340 -2.905438
-14.866154 6.372602 -2.888389
-14.926661 6.507245 -2.907848
-14.910901 6.609548 -2.912624
-14.935788 6.730532 -2.925497
-14.963521 6.853797 -2.939111
-14.897535 6.934474 -2.934453
-14.872050 7.033956 -2.937879
-14.776546 7.100060 -2.927564
-14.607085 7.129283 -2.902602
-14.488570 7.181849 -2.887754
-14.428475 7.262684 -2.884604
-14.406748 7.362889 -2.889239
-14.423223 7.483276 -2.901697
-14.461904 7.616331 -2.918826
-14.459594 7.728814 -2.927876
-14.404426 7.813337 -2.926358
-14.332984 7.888789 -2.921623
-14.284752 7.976834 -2.921713
-14.272862 8.085477 -2.929374
-14.291394 8.212212 -2.943464
-14.410319 8.398584 -2.978516
-14.437155 8.533328 -2.994828
-13.965534 8.370619 -2.907596
-13.402027 8.145057 -2.800627
-14.202451 8.751294 -2.979057
-13.857057 8.656223 -2.917695
-13.753243 8.709145 -2.907034
-13.779621 8.844768 -2.924025
-13.748635 8.944468 -2.929041
-13.755144 9.069308 -2.942228
-13.680797 9.141217 -2.938268
-13.598501 9.207418 -2.932672
-13.601089 9.331395 -2.945523
-13.525431 9.402060 -2.941576
-13.437156 9.463513 -2.934951
-13.300855 9.490145 -2.917844
-13.166576 9.516791 -2.901143
-13.074331 9.572797 -2.893706
-13.029159 9.663083 -2.896776
-13.065026 9.814514 -2.918085
-13.086635 9.956942 -2.936502
-12.853180 9.904425 -2.897699
-12.331852 9.623872 -2.793428
-11.504212 9.092103 -2.618538
-11.463674 9.174899 -2.622076
-8.231781 15.630522 -3.154686
-7.977141 15.375096 -3.093196
-7.898192 15.454161 -3.099295
-8.119893 16.131456 -3.225072
-7.997436 16.133923 -3.215694
-7.772301 15.924555 -3.164399
-7.635722 15.891359 -3.148433
-7.434408 15.718735 -3.105136
-7.169032 15.401443 -3.033710
-6.896027 15.055721 -2.957221
-6.720207 14.912877 -2.921009
-6.604104 14.898619 -2.910225
-6.482340 14.869534 -2.896719
-6.374241 14.869978 -2.889132
-6.292165 14.930842 -2.893401
-6.179098 14.917663 -2.883446
-6.046993 14.855906 -2.864283
-5.949166 14.876329 -2.861129
-5.868176 14.939033 -2.866209
-5.821689 15.092162 -2.888681
-5.803059 15.323218 -2.926035
-5.779939 15.549575 -2.962431
-5.735675 15.725270 -2.989142
-5.669497 15.845184 -3.005266
-5.583987 15.913359 -3.011642
-5.487877 15.952082 -3.012541
-5.392118 15.992052 -3.013784
-5.289991 16.013030 -3.011563
-5.187677 16.032950 -3.009267
-5.083860 16.047613 -3.006107
-4.985364 16.078718 -3.006147
-4.896921 16.142984 -3.012488
-4.805463 16.198634 -3.017314
-4.714872 16.258481 -3.023015
-4.617613 16.296244 -3.024712
-4.509749 16.296138 -3.019499
-4.416274 16.347939 -3.024019
-4.317935 16.382520 -3.025458
-4.215780 16.402665 -3.024344
-4.119495 16.445945 -3.027607
-4.018974 16.472826 -3.027959
-3.909330 16.461414 -3.021395
-3.800350 16.450891 -3.015126
-3.680333 16.389268 -2.999637
-3.572713 16.379502 -2.993781
-3.470363 16.392709 -2.992246
-3.370204 16.416080 -2.992681
-3.282031 16.499885 -3.004231
-3.179304 16.512315 -3.002886
-3.069958 16.488714 -2.995112
-2.966722 16.496090 -2.993089
-2.861822 16.493089 -2.989302
-2.772204 16.579927 -3.001901
-2.669177 16.588900 -3.000504
-2.571373 16.631059 -3.005219
-2.457896 16.569792 -2.991366
-2.319020 16.323003 -2.944189
-2.193275 16.148835 -2.910292
-2.123973 16.392183 -2.951743
-0.185198 1.501549 -0.270174
-0.835039 7.130162 -1.281988
-1.948296 17.568378 -3.156547
-1.799929 17.192834 -3.087030
-1.643360 16.685312 -2.994036
-1.547022 16.760867 -3.005833
-1.449685 16.834316 -3.017354
-1.338635 16.746207 -3.000032
-1.235742 16.752542 -2.999752
-1.131317 16.736000 -2.995491
-1.027052 16.717341 -2.990967
-0.923390 16.704016 -2.987513
-0.820896 16.709718 -2.987576
-0.719133 16.732632 -2.990827
-0.617088 16.754039 -2.993920
-0.514806 16.774813 -2.997012
-0.411919 16.779732 -2.997383
-0.309195 16.795098 -2.999732
-0.206329 16.812317 -3.002525
-0.103263 16.829112 -3.005355
0.000000 16.845146 -3.008161
0.103424 16.855346 -3.010040
0.206687 16.841554 -3.007746
0.309865 16.831498 -3.006233
0.412452 16.801452 -3.001263
0.514782 16.774025 -2.996871
0.617197 16.757009 -2.994451
0.719535 16.741985 -2.992499
0.821601 16.724071 -2.990142
0.923845 16.712241 -2.988984
1.025314 16.689046 -2.985905
1.125646 16.652107 -2.980475
1.225454 16.613079 -2.974780
1.325130 16.577257 -2.969765
1.426237 16.562032 -2.968550
1.528130 16.556187 -2.969127
1.630275 16.552460 -2.970197
1.732867 16.552257 -2.972012
1.834505 16.542285 -2.972187
1.935600 16.527542 -2.971616
2.035241 16.501299 -2.969087
2.135196 16.478803 -2.967341
2.236742 16.468882 -2.967970
2.338537 16.460378 -2.968967
2.442363 16.465074 -2.972462
2.545303 16.462443 -2.974750
2.647890 16.456605 -2.976575
2.745867 16.422410 -2.973382
2.842479 16.381610 -2.969096
2.940238 16.348831 -2.966369
3.039708 16.326244 -2.965600
3.142000 16.318569 -2.967652
3.245451 16.315982 -2.970747
3.348212 16.308960 -2.973153
3.450851 16.300541 -2.975422
3.550973 16.279835 -2.975564
3.650825 16.257863 -2.975586
3.751904 16.241180 -2.976690
3.851903 16.219599 -2.977011
3.951425 16.195958 -2.977066
4.050814 16.171756 -2.977130
4.149981 16.146654 -2.977141
4.246550 16.111679 -2.975440
4.341566 16.071389 -2.972864
4.434986 16.025980 -2.969442
4.530963 15.990443 -2.967953
4.629443 15.963892 -2.968241
4.731530 15.949417 -2.970892
4.833074 15.932509 -2.973211
4.937159 15.923247 -2.977079
5.037686 15.901859 -2.978804
5.137269 15.877159 -2.980026
5.241843 15.867286 -2.984153
5.343758 15.848627 -2.986755
5.449334 15.840045 -2.991382
5.556912 15.836202 -2.997039
5.660181 15.819146 -3.000328
5.764896 15.805387 -3.004371
5.863131 15.773384 -3.005070
5.959137 15.735349 -3.004733
6.053723 15.693686 -3.003814
6.148597 15.652920 -3.003176
6.244068 15.613753 -3.002956
6.343560 15.584495 -3.004758
6.444449 15.558275 -3.007270
6.546909 15.535329 -3.010543
6.648146 15.508950 -3.013280
6.745381 15.472910 -3.014262
6.844920 15.441892 -3.016345
6.943564 15.408530 -3.018094
7.044946 15.380847 -3.021082
7.145242 15.350334 -3.023643
7.247009 15.322513 -3.026865
7.348324 15.293230 -3.029930
7.443306 15.250482 -3.030453
7.533625 15.198237 -3.029200
7.619660 15.137664 -3.026389
7.706025 15.078153 -3.023887
7.797726 15.029291 -3.023627
7.892065 14.985469 -3.024496
7.984733 14.938385 -3.024824
8.074133 14.885220 -3.024034
8.155010 14.816675 -3.020218
8.229786 14.737734 -3.014363
8.305335 14.660966 -3.009028
8.389782 14.600412 -3.007109
8.480477 14.550831 -3.007558
8.576728 14.510582 -3.010060
8.667429 14.460731 -3.010695
8.752304 14.401204 -3.009426
8.828657 14.328004 -3.005393
8.896177 14.241180 -2.998574
8.960406 14.150027 -2.990902
9.026453 14.062675 -2.984089
9.101518 13.990038 -2.980470
9.189831 13.937937 -2.981328
9.284652 13.895463 -2.984372
9.379840 13.853152 -2.987590
9.469105 13.801809 -2.988991
9.556707 13.747899 -2.989959
9.640048 13.687816 -2.989701
9.723965 13.628566 -2.989735
9.813947 13.577694 -2.991729
9.901471 13.523228 -2.993059
9.972408 13.446236 -2.989505
10.051915 13.381052 -2.988670
10.128886 13.312625 -2.987212
10.200446 13.237333 -2.984305
10.269111 13.158649 -2.980716
10.333159 13.074516 -2.975964
10.401206 12.995895 -2.972540
10.481892 12.933238 -2.972863
10.569519 12.878997 -2.975247
10.643878 12.808526 -2.973999
10.707318 12.725206 -2.969852
10.769430 12.640761 -2.965510
10.834366 12.560041 -2.962114
10.897087 12.477133 -2.958274
10.972114 12.408536 -2.957917
11.065455 12.360427 -2.962578
11.158073 12.311036 -2.967095
11.236126 12.245309 -2.967814
11.305851 12.170537 -2.966450
11.318830 12.035559 -2.950423
11.241783 11.807614 -2.911399
11.095123 11.511304 -2.855071
10.926325 11.197843 -2.793901
10.429324 10.558103 -2.650200
9.212410 9.212410 -2.326562
10.826643 10.694589 -2.717607
11.704008 11.420217 -2.920191
11.148569 10.745503 -2.765104
11.254856 10.715514 -2.775106
12.824636 11.481031 -3.073841
14.176736 12.535626 -3.379416
14.243325 12.439616 -3.377031
14.288946 12.325730 -3.369852
14.429890 12.293697 -3.385238
14.527813 12.224078 -3.390550
13.810459 11.476484 -3.206637
13.982167 11.474868 -3.230096
1.457663 1.181380 -0.335062
10.352155 8.181601 -2.356312
15.848844 12.368559 -3.590102
15.957762 12.296759 -3.597615
16.073546 12.229528 -3.606733
16.380148 12.304851 -3.658520
16.542730 12.268925 -3.677950
16.488774 12.072793 -3.649415
16.428191 11.874284 -3.619812
16.432805 11.724787 -3.604909
16.451903 11.586737 -3.593434
16.485089 11.459436 -3.585257
16.549934 11.354530 -3.584140
16.579831 11.226049 -3.575629
16.549442 11.057984 -3.554376
16.446595 10.843888 -3.517930
16.286091 10.595264 -3.469627
16.117622 10.345468 -3.420147
15.965417 10.109989 -3.374622
15.819975 9.882419 -3.331000
15.670145 9.655660 -3.286916
15.461409 9.396642 -3.230977
15.158422 9.085608 -3.155952
14.610150 8.635580 -3.030714
14.051729 8.189592 -2.904397
14.402943 8.276312 -2.966438
15.070074 8.537092 -3.092994
15.529730 8.672049 -3.176353
14.553457 8.010136 -2.966564
13.967158 7.576152 -2.837524
15.042596 7.341843 -2.989143
15.674414 7.531481 -3.105452
15.528980 7.344660 -3.067651
15.531583 7.229609 -3.059345
15.591646 7.141499 -3.062487
15.544931 7.005031 -3.044811
15.588041 6.909704 -3.044893
15.643372 6.819693 -3.047470
15.667546 6.716130 -3.044094
15.694426 6.613955 -3.041374
15.744650 6.521647 -3.043295
15.802440 6.432273 -3.046779
15.861766 6.343250 -3.050655
15.927048 6.256277 -3.055770
15.949770 6.152505 -3.052829
15.972287 6.048868 -3.049977
15.985641 5.942029 -3.045508
16.010790 5.839816 -3.043415
16.067250 5.748954 -3.047384
16.134315 5.661520 -3.053458
16.202739 5.574108 -3.059877
16.277919 5.488505 -3.067657
16.325121 5.393092 -3.070258
16.367007 5.295766 -3.071967
16.404577 5.196946 -3.072975
16.427175 5.093407 -3.071296
16.458911 4.992756 -3.071444
16.495146 4.893425 -3.072545
16.534381 4.794882 -3.074315
16.589329 4.700660 -3.079111
16.631953 4.602681 -3.081722
16.653120 4.498716 -3.080471
16.676301 4.395367 -3.079713
16.682391 4.287675 -3.075921
16.710143 4.185673 -3.076244
16.736256 4.083244 -3.076381
16.760273 3.980304 -3.076248
16.785965 3.877756 -3.076539
16.791754 3.770714 -3.073301
16.806479 3.665845 -3.071822
16.817179 3.560224 -3.069727
16.834970 3.456201 -3.069045
16.863981 3.354454 -3.070524
16.883234 3.250721 -3.070340
16.901036 3.146726 -3.070008
16.925317 3.043916 -3.070968
16.927355 2.937175 -3.068010
16.927919 2.830389 -3.064907
16.925096 2.723271 -3.061313
16.918528 2.615820 -3.057164
16.924210 2.510469 -3.055350
16.916060 2.403276 -3.051159
16.916756 2.297571 -3.048684
16.935802 2.194411 -3.049633
16.933270 2.088520 -3.046812
16.963201 1.986622 -3.049946
17.004940 1.885812 -3.055313
17.046596 1.784620 -3.060772
17.098931 1.684098 -3.068256
17.119271 1.580102 -3.070108
17.141372 1.476127 -3.072390
17.154949 1.371309 -3.073257
17.163308 1.266042 -3.073305
17.204586 1.162993 -3.079361
17.270094 1.061012 -3.089862
17.379810 0.960747 -3.108379
17.488034 0.859132 -3.126733
17.573534 0.755273 -3.141132
17.614399 0.648777 -3.147665
17.425378 0.534772 -3.113243
17.141887 0.420810 -3.062075
16.505412 0.303862 -2.947992
16.116871 0.197794 -2.878325
10.108109 0.062023 -1.805113
1.777219 -0.021811 -0.317395
16.659096 -0.306691 -2.975441
17.134234 -0.420622 -3.060708
16.938232 -0.519822 -3.026209
17.048817 -0.627945 -3.046597
17.157340 -0.737386 -3.066741
17.045860 -0.837409 -3.047675
16.930683 -0.935920 -3.028052
16.863944 -1.036059 -3.017196
16.768972 -1.133546 -3.001392
16.740659 -1.234865 -2.997625
16.847803 -1.346756 -3.018233
16.992012 -1.463265 -3.045619
17.041058 -1.572883 -3.056082
16.497650 -1.624877 -2.960361
15.647627 -1.638161 -2.809583
15.612160 -1.731356 -2.805069
15.672772 -6.267670 -3.014307
16.289707 -6.630611 -3.140726
15.712989 -6.508533 -3.037175
15.471138 -6.519857 -2.998104
15.542492 -6.662524 -3.019797
15.468523 -6.743468 -3.013408
15.316396 -6.789291 -2.991831
15.068639 -6.790399 -2.951519
14.796336 -6.777220 -2.906273
14.587585 -6.790199 -2.873400
14.457922 -6.838088 -2.856071
14.401509 -6.919857 -2.853261
14.386506 -7.021625 -2.858770
14.367410 -7.121792 -2.863606
14.332590 -7.214420 -2.865435
14.256171 -7.285933 -2.859041
14.141950 -7.337342 -2.845109
13.997912 -7.371970 -2.825179
13.835948 -7.395468 -2.801596
13.685003 -7.423104 -2.780202
13.570272 -7.468997 -2.766152
13.470812 -7.522316 -2.755235
13.431955 -7.609109 -2.756785
13.512243 -7.764491 -2.782989
13.648830 -7.954775 -2.821121
13.762572 -8.134604 -2.854894
13.828908 -8.288728 -2.879150
13.804859 -8.389877 -2.884807
13.741092 -8.467013 -2.882284
13.620884 -8.508691 -2.867967
13.506105 -8.552647 -2.854796
13.447057 -8.631304 -2.853456
13.447130 -8.748318 -2.864808
13.464548 -8.877707 -2.880070
13.433222 -8.975792 -2.885095
13.318679 -9.017953 -2.872325
13.189333 -9.048899 -2.856351
13.090637 -9.099818 -2.847015
13.036575 -9.181392 -2.847456
13.055203 -9.314872 -2.863955
13.112134 -9.477441 -2.889147
13.099441 -9.591182 -2.899263
13.029813 -9.663568 -2.896922
12.926691 -9.710596 -2.887188
12.839645 -9.769021 -2.881080
12.793611 -9.858522 -2.884270
12.790620 -9.981898 -2.897349
12.787662 -10.106450 -2.910672
12.728009 -10.186804 -2.911266
12.656943 -10.257966 -2.909354
12.553812 -10.302647 -2.900124
12.437896 -10.335884 -2.887943
12.329609 -10.374452 -2.877526
12.227609 -10.417440 -2.868585
12.141297 -10.473155 -2.863359
12.066409 -10.538375 -2.860894
12.012295 -10.621742 -2.863462
11.960809 -10.707704 -2.866797
11.900456 -10.785944 -2.868140
11.850836 -10.874163 -2.872208
11.800566 -10.962165 -2.876273
11.743996 -11.044631 -2.878949
11.709301 -11.148181 -2.887158
11.659848 -11.238296 -2.891913
11.619546 -11.337803 -2.899117
11.578980 -11.437749 -2.906452
11.525954 -11.525954 -2.910839
11.480319 -11.622076 -2.917269
11.419534 -11.703308 -2.920016
11.366846 -11.793219 -2.924992
11.315683 -11.885234 -2.930538
11.254442 -11.967094 -2.933639
11.204809 -12.061768 -2.939938
11.136328 -12.136547 -2.941454
11.071489 -12.215505 -2.944071
11.004596 -12.292445 -2.946284
10.927145 -12.357680 -2.945794
10.859454 -12.434044 -2.948058
10.775496 -12.491795 -2.946019
10.681658 -12.537738 -2.941341
10.587860 -12.583236 -2.936718
10.479967 -12.611280 -2.928201
10.379916 -12.647964 -2.921875
10.291497 -12.698316 -2.918864
10.192163 -12.734704 -2.912798
10.105594 -12.786579 -2.910425
10.006160 -12.821710 -2.904392
9.933097 -12.890389 -2.906088
9.895691 -13.006131 -2.918438
9.914727 -13.198428 -2.947880
9.957168 -13.425687 -2.984937
10.000245 -13.658130 -3.022916
9.967662 -13.790360 -3.038588
9.576050 -13.421256 -2.944257
8.943477 -12.698762 -2.773671
8.204978 -11.803356 -2.567051
7.179356 -10.603242 -2.286710
9.453254 -14.147794 -3.038566
8.582047 -13.016129 -2.784153
8.909572 -13.694996 -2.917614
9.461708 -14.740777 -3.127982
9.226847 -14.570783 -3.079838
8.968253 -14.356560 -3.022869
8.868307 -14.392351 -3.018890
8.807570 -14.492139 -3.028428
8.753655 -14.604592 -3.040646
8.668482 -14.665816 -3.042262
8.568419 -14.701721 -3.038746
8.443761 -14.694350 -3.026457
8.286910 -14.628442 -3.002353
8.152842 -14.599944 -2.986181
8.031199 -14.591725 -2.974364
7.929011 -14.617678 -2.969681
7.840593 -14.668717 -2.970220
7.757606 -14.730158 -2.972967
7.679173 -14.800794 -2.977657
7.611359 -14.892924 -2.986740
7.537845 -14.975126 -2.993893
7.455708 -15.041048 -2.997870
7.373816 -15.108105 -3.002161
7.274991 -15.140610 -2.999693
7.181807 -15.184654 -2.999632
7.092112 -15.236194 -3.001160
6.990838 -15.262716 -2.997879
6.898291 -15.308065 -2.998416
6.797752 -15.335482 -2.995559
6.688906 -15.343366 -2.989026
6.589364 -15.371823 -2.986637
6.469187 -15.350902 -2.974804
6.364068 -15.364219 -2.969761
6.262895 -15.386322 -2.966549
6.158389 -15.399506 -2.961750
6.073888 -15.462727 -2.966685
5.976046 -15.492317 -2.965271
5.879714 -15.525629 -2.964686
5.788755 -15.573293 -2.966949
5.688179 -15.595054 -2.964390
5.592648 -15.630405 -2.964531
5.499052 -15.671310 -2.965833
5.400052 -15.696793 -2.964329
5.307383 -15.740743 -2.966423
5.204263 -15.753529 -2.962759
5.109811 -15.792297 -2.964098
5.017729 -15.838865 -2.967003
4.921299 -15.872097 -2.967516
4.830725 -15.924765 -2.971765
4.729794 -15.943563 -2.969802
4.626416 -15.953454 -2.966300
4.525191 -15.970075 -2.964172
4.410117 -15.936116 -2.952791
4.303964 -15.932196 -2.947116
4.204066 -15.950492 -2.945673
4.108265 -15.984348 -2.947214
4.008380 -16.002348 -2.945943
3.901768 -15.992428 -2.939654
3.784162 -15.934355 -2.924656
3.660821 -15.846901 -2.904427
3.545849 -15.790384 -2.890026
3.475108 -15.932024 -2.911992
3.451415 -16.303207 -2.975909
3.404198 -16.581663 -3.022867
3.329916 -16.740618 -3.048063
3.246687 -16.862283 -3.066530
3.151117 -16.924618 -3.074292
3.059438 -17.011630 -3.086629
2.975085 -17.145836 -3.107609
2.900936 -17.349840 -3.141299
2.815952 -17.501107 -3.165499
2.718379 -17.581859 -3.177028
2.613051 -17.615756 -3.180196
2.412142 -16.978464 -3.062415
2.413014 -17.766753 -3.201868
-1.741127 -17.677955 -3.172157
-1.918930 -18.329518 -3.291125
-2.039620 -18.391871 -3.304506
-2.154964 -18.400633 -3.308394
-2.278164 -18.470863 -3.323472
-2.374356 -18.324562 -3.299707
-2.485467 -18.300217 -3.298007
-2.602440 -18.317922 -3.304014
-2.711076 -18.276587 -3.299496
-2.811666 -18.185219 -3.286054
-2.915031 -18.116881 -3.276876
-3.010501 -18.005129 -3.259943
-3.086706 -17.789124 -3.224202
-3.169797 -17.625262 -3.197968
-3.253286 -17.473367 -3.173970
-3.357082 -17.435639 -3.170799
-3.497266 -17.581941 -3.201247
-3.641857 -17.739287 -3.233904
-3.794175 -17.922277 -3.271446
-3.945016 -18.086370 -3.305755
-4.086827 -18.199467 -3.330947
-4.223481 -18.282531 -3.350830
-4.366407 -18.386075 -3.374655
-4.504198 -18.461645 -3.393534
-4.638259 -18.516968 -3.408870
-4.778967 -18.593902 -3.428367
-4.916145 -18.652168 -3.444608
-5.053068 -18.705190 -3.460060
-5.174857 -18.699532 -3.464822
-5.288767 -18.664847 -3.464343
-5.394729 -18.602858 -3.458916
-5.490239 -18.506933 -3.447280
-5.589520 -18.426177 -3.438561
-5.684696 -18.334191 -3.427840
-5.777865 -18.238296 -3.416475
-5.874992 -18.157155 -3.407964
-5.969260 -18.069208 -3.398268
-6.075371 -18.018457 -3.395670
-6.197382 -18.014463 -3.402020
-6.320187 -18.011396 -3.408700
-6.442729 -18.006220 -3.415138
-6.556529 -17.975774 -3.416930
-6.663463 -17.926488 -3.415269
-6.769542 -17.875258 -3.413358
-6.858032 -17.778780 -3.402906
-6.940835 -17.669778 -3.390131
-7.015429 -17.542600 -3.373926
-7.076086 -17.384123 -3.351734
-7.146976 -17.254328 -3.335101
-7.223963 -17.141928 -3.321881
-7.300154 -17.029970 -3.308803
-7.391170 -16.954255 -3.302842
-7.492072 -16.901844 -3.301525
-7.606898 -16.880540 -3.306419
-7.732606 -16.882177 -3.315971
-7.848736 -16.861673 -3.321340
-7.966202 -16.843120 -3.327251
-8.059567 -16.773460 -3.323197
-8.142425 -16.682897 -3.315091
-8.224900 -16.592807 -3.307155
-8.262273 -16.414317 -3.281623
-8.300648 -16.241634 -3.257221
-8.319221 -16.034418 -3.225840
-8.325450 -15.808381 -3.190583
-8.396114 -15.708025 -3.180666
-8.489528 -15.651029 -3.179614
-8.607296 -15.638425 -3.187723
-8.742123 -15.655217 -3.202019
-8.863809 -15.646811 -3.211364
-8.974796 -15.618488 -3.216793
-9.087617 -15.592565 -3.222878
-9.187371 -15.543702 -3.224369
-9.283191 -15.488069 -3.224584
-9.381353 -15.436253 -3.225720
-9.472572 -15.373013 -3.224590
-9.585386 -15.344480 -3.230882
-9.680762 -15.287594 -3.231350
-9.791757 -15.254974 -3.237094
-9.935759 -15.272359 -3.253659
-10.044417 -15.234062 -3.258569
-10.180300 -15.235896 -3.272261
-10.320597 -15.242563 -3.287232
-10.421524 -15.190019 -3.289629
-10.538136 -15.159745 -3.297014
-10.636233 -15.102290 -3.298651
-10.712595 -15.014173 -3.293700
-10.802450 -14.945297 -3.293069
-10.882043 -14.862473 -3.289470
-10.976789 -14.800487 -3.290596
-11.095340 -14.770054 -3.298904
-11.229039 -14.758581 -3.311669
-11.364730 -14.748249 -3.324935
-11.476360 -14.705597 -3.331132
-11.557701 -14.623926 -3.328634
-11.621930 -14.521143 -3.321408
-11.672744 -14.402588 -3.310611
-11.752276 -14.320190 -3.308185
-11.829542 -14.235318 -3.305284
-11.905569 -14.149278 -3.302207
-11.993180 -14.077154 -3.302487
-12.054601 -13.974633 -3.295726
-12.156069 -13.918665 -3.300055
-12.272193 -13.878815 -3.308399
-12.393863 -13.844296 -3.318236
-12.572457 -13.871568 -3.343200
-12.731810 -13.875329 -3.362871
-12.851167 -13.834042 -3.371913
-12.954761 -13.775080 -3.376853
-13.011951 -13.666880 -3.369838
-13.041655 -13.530850 -3.355965
-13.082268 -13.407361 -3.345183
-13.089584 -13.251211 -3.326200
-13.079007 -13.079007 -3.303057
-13.049114 -12.889952 -3.275472
-13.003803 -12.688495 -3.244494
-12.979153 -12.509903 -3.219131
-12.946207 -12.325814 -3.192142
-12.907408 -12.138760 -3.164150
-12.894841 -11.978694 -3.142992
-12.895427 -11.832665 -3.125379
-12.969942 -11.755270 -3.125898
-13.052095 -11.684659 -3.128359
-13.120065 -11.601276 -3.127530
-13.174546 -11.506182 -3.123628
-13.173436 -11.363484 -3.106775
-13.143805 -11.198003 -3.083524
-13.055457 -10.985200 -3.046927
-12.953117 -10.764033 -3.007571
-12.903340 -10.589498 -2.980871
-12.883545 -10.441618 -2.961441
-12.955828 -10.369138 -2.963375
-13.067961 -10.327978 -2.974472
-13.121364 -10.240013 -2.972270
-13.133434 -10.120383 -2.960881
-13.070779 -9.944878 -2.932944
-12.917201 -9.703467 -2.885068
-12.859517 -9.537268 -2.859060
-12.871467 -9.424263 -2.848806
-12.966283 -9.372020 -2.857010
-13.061819 -9.319593 -2.865406
-13.110844 -9.233698 -2.863678
-13.146901 -9.138930 -2.859252
-13.194542 -9.052473 -2.857479
-13.364812 -9.049190 -2.882274
-13.721309 -9.168286 -2.946969
-14.017525 -9.242306 -2.998351
-14.214725 -9.247693 -3.028338
-14.419062 -9.255207 -3.059714
-14.566440 -9.224096 -3.078920
-14.690335 -9.176755 -3.093147
-14.782930 -9.108974 -3.100817
-14.813159 -9.002669 -3.095512
-14.836491 -8.892650 -3.088927
-14.847702 -8.775988 -3.079992
-14.807605 -8.630129 -3.060632
-14.800693 -8.504869 -3.048359
-14.774713 -8.369772 -3.032374
-14.751010 -8.237199 -3.017079
-14.806198 -8.149243 -3.018082
-14.882559 -8.072689 -3.023494
-15.079478 -8.060149 -3.053394
-15.273876 -8.043954 -3.082705
-15.417016 -7.998891 -3.101630
-15.573247 -7.959053 -3.123177
-15.634098 -7.869544 -3.125638
-15.664761 -7.764876 -3.122184
-15.719410 -7.672176 -3.123634
-15.711494 -7.549298 -3.112798
-15.721434 -7.435685 -3.105669
-15.748467 -7.330563 -3.102066
-15.726621 -7.203322 -3.088998
-15.753843 -7.099173 -3.085731
-15.780861 -6.995175 -3.082558
-15.812160 -6.893276 -3.080351
-15.897588 -6.814741 -3.088789
-15.965893 -6.728357 -3.093981
-16.052217 -6.649046 -3.102745
-16.149998 -6.573744 -3.113790
-16.236019 -6.492917 -3.122635
-16.326113 -6.413033 -3.132335
-16.389828 -6.322254 -3.137057
-16.451238 -6.230251 -3.141435
-16.496506 -6.131923 -3.142835
-16.515231 -6.023807 -3.139302
-16.531134 -5.914934 -3.135367
-16.551254 -5.807824 -3.132365
-16.557412 -5.696124 -3.126857
-16.598307 -5.596532 -3.128036
-16.677221 -5.509410 -3.136478
-16.752746 -5.420577 -3.144367
-16.833304 -5.332766 -3.153286
-16.888662 -5.236495 -3.157578
-16.929811 -5.135602 -3.159320
-16.978146 -5.036711 -3.162513
-17.024730 -4.937080 -3.165488
-17.053771 -4.832261 -3.165315
-17.088158 -4.728930 -3.166252
-17.096622 -4.618525 -3.162510
-17.098720 -4.506704 -3.157723
-17.120383 -4.400246 -3.156678
-17.150132 -4.295885 -3.157244
-17.208456 -4.198450 -3.163179
-17.263634 -4.099845 -3.168637
-17.336070 -4.004837 -3.177362
-17.391866 -3.905474 -3.183137
-17.411178 -3.797743 -3.182346
-17.477199 -3.699951 -3.190204
-17.512054 -3.595206 -3.192479
-17.552517 -3.491413 -3.195890
-17.628871 -3.394287 -3.205940
-17.675421 -3.290905 -3.210672
-17.777850 -3.197239 -3.225654
-17.814295 -3.091073 -3.228765
-17.831152 -2.981412 -3.228443
-17.872570 -2.875721 -3.232687
-17.818429 -2.754956 -3.219776
-17.829723 -2.644790 -3.218823
-17.888476 -2.541428 -3.226554
-17.868952 -2.426895 -3.220286
-17.856648 -2.313727 -3.215450
-17.853379 -2.202004 -3.212367
-17.804833 -2.085188 -3.201270
-17.802102 -1.974216 -3.198541
-17.826463 -1.866264 -3.200800
-17.824809 -1.755590 -3.198509
-17.911220 -1.653199 -3.212134
-17.885092 -1.540172 -3.205693
-17.808893 -1.423583 -3.190409
-17.891257 -1.319738 -3.203654
-17.856135 -1.207036 -3.195978
-18.134006 -1.114087 -3.244428
-18.536596 -1.024694 -3.315270
-18.705572 -0.918946 -3.344420
-18.615493 -0.800055 -3.327374
-17.835962 -0.656937 -3.187258
-18.160407 -0.557329 -3.244564
-1.062824 -0.019566 -0.189829
-15.853347 0.000000 -2.956135
-16.129425 0.098970 -3.007671
-16.306405 0.200120 -3.040845
-16.408120 0.302071 -3.060101
-15.997962 0.392728 -2.984000
-15.631775 0.479727 -2.916192
-15.455247 0.569250 -2.883857
-15.285270 0.656929 -2.852838
-15.315678 0.752411 -2.859322
-15.420278 0.852425 -2.879772
-15.455568 0.949534 -2.887396
-15.575576 1.052875 -2.910968
-15.570611 1.148557 -2.911302
-15.503955 1.239334 -2.900207
-15.424345 1.328265 -2.886785
-15.387714 1.420280 -2.881506
-15.577681 1.534268 -2.918787
-15.730144 1.646799 -2.949192
-15.851466 1.757895 -2.973905
-15.935866 1.866307 -2.991831
-15.938773 1.965860 -2.994585
-16.189087 2.097657 -3.043975
-16.480338 2.238298 -3.101262
-16.700967 2.372718 -3.145460
-16.973291 2.517750 -3.199599
-17.014106 2.630597 -3.210276
-16.951016 2.727442 -3.201469
-16.901188 2.825920 -3.195273
-16.623778 2.884499 -3.146114
-16.393831 2.948331 -3.105961
-16.089878 2.995700 -3.051799
-15.865278 3.054722 -3.012697
-15.888020 3.160324 -3.020641
-15.887700 3.261728 -3.024329
-15.970295 3.380937 -3.043943
-16.110121 3.513955 -3.074646
-16.163001 3.629523 -3.088930
-16.306757 3.767053 -3.120762
-16.281234 3.866540 -3.120359
-16.153300 3.941017 -3.100417
-16.092833 4.031045 -3.093500
-16.031121 4.120287 -3.086439
-15.996706 4.216246 -3.084736
-15.968584 4.313794 -3.084359
-15.917185 4.404878 -3.079594
-15.851939 4.491717 -3.072245
-15.860289 4.599399 -3.079275
-15.852298 4.702719 -3.083268
-15.816478 4.797876 -3.081969
-15.990985 4.958162 -3.121842
-16.096410 5.099319 -3.148473
-16.066759 5.198617 -3.148854
-16.131381 5.329089 -3.167868
-15.914711 5.366040 -3.131725
-14.955338 5.144974 -2.949095
-14.831390 5.204325 -2.930895
-2.296254 0.821613 -0.454760
-12.271610 4.561485 -2.441227
-16.496487 6.247388 -3.289258
-16.159450 6.233388 -3.229621
-15.695373 6.165273 -3.144373
-16.270448 6.506686 -3.267519
-15.586416 6.344342 -3.137907
-14.330625 5.935939 -2.892365
-9.597138 4.044432 -1.941973
-8.559287 4.440860 -1.798060
-1.645194 0.866438 -0.346718
-2.160601 1.223965 -0.463036
-10.717901 6.158789 -2.304999
-0.879104 0.512357 -0.189733
-2.313163 1.367234 -0.501041
-14.584472 8.741596 -3.170620
-13.875765 8.432970 -3.027741
-12.766050 7.866210 -2.796077
-10.250822 6.403481 -2.253744
-1.123065 0.811751 -0.258392
-12.037949 8.813976 -2.782046
-13.018282 9.655016 -3.022242
-12.671443 9.518853 -2.955226
-12.810109 9.746548 -3.001457
-12.784210 9.851278 -3.009495
-12.672273 9.889539 -2.997373
-12.537648 9.908857 -2.979855
-12.412065 9.933940 -2.964439
-12.281947 9.954046 -2.947894
-12.242299 10.046995 -2.953119
-12.158718 10.103888 -2.947857
-12.089196 10.172162 -2.946079
-12.056105 10.271326 -2.953318
-11.969908 10.325313 -2.947667
-11.941115 10.428947 -2.956280
-11.894822 10.517868 -2.960741
-11.841697 10.601072 -2.963653
-11.865129 10.753926 -2.985975
-11.843795 10.867702 -2.997332
-11.837361 10.996346 -3.012723
-11.820887 11.116942 -3.025834
-11.798655 11.233253 -3.037729
-11.810427 11.383432 -3.058686
-11.792186 11.506257 -3.072189
-11.739614 11.596424 -3.076973
-11.699874 11.699874 -3.085315
-11.620935 11.764427 -3.083476
-11.528492 11.814974 -3.078126
-11.471706 11.902013 -3.082405
-11.455834 12.032439 -3.097920
-11.458507 12.184080 -3.118802
-11.467818 12.344893 -3.141894
-11.432938 12.459797 -3.153225
-11.374114 12.549400 -3.158179
-11.296849 12.618900 -3.158165
-11.210283 12.677885 -3.155653
-11.127339 12.740772 -3.154252
-11.021200 12.776633 -3.146329
-10.935771 12.836006 -3.144366
-10.854480 12.900102 -3.143693
-10.779930 12.972247 -3.145095
-10.701676 13.040030 -3.145550
-10.586552 13.062374 -3.135211
-10.438825 13.042900 -3.115104
-10.298725 13.030947 -3.097099
-10.175889 13.039197 -3.084161
-10.060126 13.055236 -3.073296
-9.989092 13.128890 -3.076148
-9.924063 13.210857 -3.081028
-9.859731 13.294309 -3.086323
-9.792680 13.374643 -3.090965
-9.701963 13.422763 -3.088269
-9.596032 13.449261 -3.080761
-9.468103 13.443674 -3.066115
-9.381665 13.496090 -3.064883
-9.312593 13.573683 -3.069470
-9.253922 13.667182 -3.077715
-9.220354 13.799235 -3.094653
-9.142403 13.866005 -3.096988
-9.063253 13.931221 -3.099075
-8.989257 14.004727 -3.103098
-8.932353 14.105726 -3.113274
-8.919311 14.278213 -3.139205
-8.923315 14.481624 -3.171829
-8.932708 14.698044 -3.207165
-8.962992 14.953849 -3.250921
-8.904873 15.065756 -3.263309
-8.826867 15.145168 -3.268717
-8.703553 15.146456 -3.257407
-8.522450 15.044229 -3.224115
-8.345747 14.945395 -3.191900
-8.129380 14.770108 -3.143751
-7.917805 14.597018 -3.096510
-7.719555 14.442272 -3.053578
-7.584632 14.401714 -3.035106
-7.483498 14.423650 -3.029994
-7.431520 14.541038 -3.045018
-7.398253 14.697804 -3.068282
-7.319068 14.765392 -3.072958
-7.231971 14.817481 -3.074506
-7.100140 14.776714 -3.056950
-6.978955 14.755761 -3.043699
-6.816353 14.643774 -3.011915
-6.677384 14.578369 -2.989979
-6.543616 14.521002 -2.969922
-6.435915 14.519191 -2.961419
-6.350821 14.567847 -2.963339
-6.244358 14.566985 -2.955314
-6.173812 14.649998 -2.964415
-6.081304 14.681567 -2.963196
-5.980078 14.691513 -2.957742
-5.915499 14.792143 -2.970638
-5.839409 14.865799 -2.978178
-5.781827 14.988822 -2.995660
-5.753248 15.191691 -3.029093
-5.695262 15.321772 -3.048005
-5.633711 15.445720 -3.065727
-5.563951 15.550203 -3.079631
-5.461104 15.563165 -3.075504
-5.364651 15.593892 -3.075013
-5.268792 15.626291 -3.074969
-5.170975 15.652764 -3.073877
-5.082407 15.707603 -3.078464
-4.986011 15.738743 -3.078513
-4.892101 15.777928 -3.080248
-4.806723 15.845643 -3.087652
-4.719530 15.908965 -3.094290
-4.634453 15.981167 -3.102743
-4.538151 16.015811 -3.104005
-4.432439 16.016776 -3.098862
-4.330221 16.029392 -3.096104
-4.226033 16.033835 -3.091896
-4.122396 16.039330 -3.088019
-4.028532 16.082802 -3.091572
-3.926439 16.093548 -3.088948
-3.815940 16.068169 -3.079525
-3.705894 16.042011 -3.070095
-3.579123 15.938557 -3.046036
-3.469000 15.904020 -3.035311
-3.370392 15.920485 -3.034449
-3.271685 15.936200 -3.033561
-3.187382 16.024051 -3.046504
-3.093140 16.064807 -3.050586
-3.001200 16.119416 -3.057402
-2.909902 16.180149 -3.065477
-2.809931 16.194029 -3.064782
-2.712595 16.223417 -3.067136
-2.613633 16.243697 -3.067881
-2.516057 16.273287 -3.070495
-2.417321 16.296251 -3.071972
-2.314420 16.290622 -3.068176
-2.214522 16.305278 -3.068319
-2.112285 16.301982 -3.065202
-2.008292 16.282799 -3.059221
-1.910701 16.314937 -3.062999
-1.811613 16.335862 -3.064782
-1.715031 16.381892 -3.071386
-1.618850 16.436458 -3.079696
-1.520818 16.476967 -3.085480
-1.420690 16.497625 -3.087657
-1.320554 16.520014 -3.090273
-1.219442 16.531575 -3.090978
-1.117015 16.524415 -3.088299
-1.015140 16.523443 -3.086896
-0.912904 16.514328 -3.084088
-0.811224 16.512848 -3.082824
-0.710044 16.521134 -3.083500
-0.608321 16.516026 -3.081792
-0.505923 16.485344 -3.075429
-0.403320 16.429452 -3.064483
-0.300790 16.338514 -3.047119
-0.199546 16.259633 -3.032123
-0.099538 16.222027 -3.024939
0.000000 16.226917 -3.025794
0.099821 16.268017 -3.033515
0.200146 16.308507 -3.041237
0.300732 16.335366 -3.046532
0.400800 16.326762 -3.045329
0.500122 16.296312 -3.040164
0.598508 16.249600 -3.032078
0.697644 16.232621 -3.029652
0.797118 16.225704 -3.029216
0.897080 16.228067 -3.030628
0.996547 16.220809 -3.030358
1.092344 16.159452 -3.020090
1.185441 16.070635 -3.004794
1.276312 15.966553 -2.986741
1.368536 15.891991 -2.974308
1.466595 15.889506 -2.975472
1.566589 15.905847 -2.980276
1.667444 15.927343 -2.986164
1.768926 15.950940 -2.992567
1.866166 15.934668 -2.991606
1.960303 15.893720 -2.986120
2.052800 15.842895 -2.978882
2.147128 15.809064 -2.974942
2.249566 15.834131 -2.982200
2.356785 15.888156 -2.995043
2.470904 15.981250 -3.015393
2.587143 16.079064 -3.036787
2.699554 16.145422 -3.052391
2.795323 16.109841 -3.048849
2.859688 15.900942 -3.012578
2.951696 15.853531 -3.006971
3.113488 16.170487 -3.070654
3.250924 16.343500 -3.107238
3.281676 15.984866 -3.042825
3.319975 15.682333 -2.989057
3.427637 15.714387 -2.999119
3.548379 15.801650 -3.019872
3.650398 15.801781 -3.024121
3.735094 15.727742 -3.014280
3.818639 15.651700 -3.004141
3.909412 15.607247 -3.000156
3.996663 15.550128 -2.993834
4.083293 15.492274 -2.987463
4.163002 15.410390 -2.976543
4.242764 15.331378 -2.966254
4.331503 15.286520 -2.962662
4.425985 15.262300 -2.963175
4.538218 15.297784 -2.975415
4.651370 15.333511 -2.987859
4.761887 15.357962 -2.998260
4.856648 15.330401 -2.998641
4.923689 15.217071 -2.982327
5.005622 15.152234 -2.975584
5.114234 15.167900 -2.984766
5.214452 15.157294 -2.988919
5.299427 15.102415 -2.984453
5.405274 15.106730 -2.991804
5.532714 15.168821 -3.010767
5.657461 15.220077 -3.027774
5.764135 15.220438 -3.034825
5.857124 15.184024 -3.034673
5.949138 15.145142 -3.034141
6.045569 15.117391 -3.035956
6.150819 15.110980 -3.042190
6.260518 15.114227 -3.050520
6.368623 15.112270 -3.057955
6.470767 15.095157 -3.062469
6.553299 15.032302 -3.057817
6.622251 14.939559 -3.047160
6.686194 14.837397 -3.034633
6.764238 14.767993 -3.028870
6.862665 14.743267 -3.032378
6.971000 14.738941 -3.040229
7.081789 14.738522 -3.049049
7.188336 14.728078 -3.055955
7.283699 14.694039 -3.058108
7.368684 14.639062 -3.056019
7.448596 14.574451 -3.052015
7.533979 14.520946 -3.050434
7.630771 14.489323 -3.053569
7.737307 14.475484 -3.060600
7.838648 14.451087 -3.065554
7.934230 14.415544 -3.068284
8.014061 14.351418 -3.065044
8.085024 14.272064 -3.058633
8.158766 14.198384 -3.053514
8.232691 14.125679 -3.048685
8.326268 14.086840 -3.051272
8.419230 14.046637 -3.053696
8.510139 14.002741 -3.055448
8.597803 13.953352 -3.056125
8.666077 13.872831 -3.050078
8.732162 13.789590 -3.043500
8.798186 13.707050 -3.037140
8.870440 13.634846 -3.033145
8.961457 13.591570 -3.035693
9.061383 13.561317 -3.041297
9.169381 13.542323 -3.049598
9.272508 13.515256 -3.056257
9.371942 13.482103 -3.061707
9.476679 13.455850 -3.068892
9.579949 13.426720 -3.075597
9.678053 13.389684 -3.080659
9.737923 13.299856 -3.073681
9.795095 13.207157 -3.066090
9.914947 13.198721 -3.078197
10.052417 13.212120 -3.095649
10.120445 13.133513 -3.091723
10.137650 12.990198 -3.072572
10.238551 12.954809 -3.079003
10.359255 12.943480 -3.091359
10.473042 12.922318 -3.101595
10.584505 12.897256 -3.111109
10.654106 12.820834 -3.108386
10.708077 12.726109 -3.101291
10.750220 12.618214 -3.091015
10.801408 12.521834 -3.083582
10.871065 12.447338 -3.081606
10.938016 12.369974 -3.079011
11.010399 12.298927 -3.078085
11.076453 12.220983 -3.075529
11.107181 12.104782 -3.063380
11.122402 11.973059 -3.047259
11.124041 11.828435 -3.027766
11.141122 11.701886 -3.012815
11.165353 11.584168 -3.000089
11.201737 11.480099 -2.990882
11.244344 11.383187 -2.983552
11.389870 11.389870 -3.003565
11.662720 11.520468 -3.056818
11.940994 11.651457 -3.110958
12.398838 11.950569 -3.211074
12.202541 11.617785 -3.141715
11.472601 10.789397 -2.936682
11.837514 10.996488 -3.012761
13.072381 11.276313 -3.219158
13.823790 11.777324 -3.386338
13.808412 11.618755 -3.365043
13.915845 11.564059 -3.373869
14.117950 11.586302 -3.405568
14.100008 11.427515 -3.384262
13.941664 11.158148 -3.329761
13.631390 10.773272 -3.239807
13.424642 10.476694 -3.175331
13.403710 10.328653 -3.155329
12.933356 9.840320 -3.030334
11.193381 8.408525 -2.610513
3.459335 2.565618 -0.803097
15.250258 10.325807 -3.434208
16.335487 10.915023 -3.663439
15.334616 10.110716 -3.425004
14.505723 9.437008 -3.226876
14.592343 9.366432 -3.233299
14.241719 9.018469 -3.143289
13.938634 8.707183 -3.064545
6.458176 3.979411 -1.414498
1.231224 0.717579 -0.265730
15.683749 9.012296 -3.372958
15.899246 9.006812 -3.407353
15.170557 8.471481 -3.239988
14.944833 8.225547 -3.180940
15.165290 8.226050 -3.217060
15.160975 8.103710 -3.205536
15.123248 7.964626 -3.187166
15.140155 7.855246 -3.180511
15.163291 7.749537 -3.175323
15.184610 7.643290 -3.169906
15.198151 7.533582 -3.163023
15.204286 7.420759 -3.154764
15.214852 7.310664 -3.147590
15.211675 7.194586 -3.137741
15.200316 7.075411 -3.126384
15.207948 6.965753 -3.119104
15.225857 6.861246 -3.114083
15.272327 6.769757 -3.115033
15.346959 6.690473 -3.121824
15.416166 6.608373 -3.127594
15.494679 6.529778 -3.135335
15.577146 6.452265 -3.143952
15.637474 6.365125 -3.148186
15.705158 6.280622 -3.153994
15.758100 6.189913 -3.156939
15.785298 6.089061 -3.154843
15.822431 5.992116 -3.154857
15.845392 5.889897 -3.152170
15.855911 5.783325 -3.147144
15.872745 5.679359 -3.143509
15.907263 5.581848 -3.143503
15.992406 5.501749 -3.153598
16.094612 5.426699 -3.167126
16.163831 5.339808 -3.174240
16.206631 5.243874 -3.176266
16.216571 5.137386 -3.171977
16.193017 5.020804 -3.161284
16.173535 4.906188 -3.151544
16.148896 4.790707 -3.140956
16.171407 4.689621 -3.139679
16.234722 4.600180 -3.146432
16.290712 4.508247 -3.151863
16.345732 4.415678 -3.157206
16.367877 4.314076 -3.156311
16.362129 4.205362 -3.150167
16.368736 4.100155 -3.146536
16.363604 3.992326 -3.140782
16.391009 3.892610 -3.141398
16.443775 3.798706 -3.146984
16.507816 3.706954 -3.154828
16.586465 3.617856 -3.165557
16.644694 3.523709 -3.172483
16.672043 3.422753 -3.173633
16.677183 3.317298 -3.170678
16.648401 3.205506 -3.161406
16.639447 3.098022 -3.156037
16.645006 2.993503 -3.153548
16.649742 2.889004 -3.151028
16.653211 2.784458 -3.148391
16.630700 2.675902 -3.140972
16.598550 2.566347 -3.131867
16.590423 2.460957 -3.127426
16.568965 2.353964 -3.120599
16.589063 2.253065 -3.121722
16.646089 2.156872 -3.129904
16.699939 2.059741 -3.137593
16.769194 1.963901 -3.148282
16.798793 1.862951 -3.151633
16.797245 1.758515 -3.149259
16.793817 1.654047 -3.146654
16.783458 1.549107 -3.142873
16.799350 1.446673 -3.144128
16.837527 1.345935 -3.149668
16.889308 1.245830 -3.157865
16.974922 1.147468 -3.172496
17.052657 1.047653 -3.185763
17.129877 0.946931 -3.199043
17.177352 0.843869 -3.206882
17.181094 0.738407 -3.206674
17.162960 0.632149 -3.202506
17.132135 0.525772 -3.196092
17.098087 0.419734 -3.189199
17.082081 0.314479 -3.185794
17.093647 0.209781 -3.187651
17.105384 0.104959 -3.189660
17.129168 -0.000000 -3.194034
17.143272 -0.105191 -3.196725
17.136443 -0.210306 -3.195632
17.133459 -0.315424 -3.195376
17.109651 -0.420018 -3.191356
17.079916 -0.524170 -3.186350
17.062443 -0.628447 -3.183750
17.022058 -0.731572 -3.176992
16.970649 -0.833715 -3.168292
16.920205 -0.935341 -3.159887
16.865468 -1.036153 -3.150792
16.843258 -1.138568 -3.147889
16.842540 -1.242380 -3.149120
16.847230 -1.346710 -3.151483
16.841832 -1.450332 -3.152079
16.776189 -1.548436 -3.141512
16.661578 -1.641022 -3.121877
16.525686 -1.730085 -3.098345
16.393966 -1.818057 -3.075683
16.306460 -1.909708 -3.061407
16.234054 -2.002280 -3.050063
16.197189 -2.098707 -3.045498
16.180138 -2.197526 -3.044771
16.173055 -2.297717 -3.046033
16.181909 -2.400359 -3.050417
16.196242 -2.504145 -3.055958
16.201369 -2.606822 -3.059886
16.218228 -2.711727 -3.066155
16.213759 -2.813354 -3.068516
16.209329 -2.915150 -3.071005
16.201375 -3.016459 -3.072947
16.179901 -3.115300 -3.072442
16.179903 -3.218383 -3.076134
16.151492 -3.315884 -3.074543
16.111696 -3.410872 -3.070894
16.054256 -3.501770 -3.063983
15.977755 -3.587925 -3.053527
15.896777 -3.672343 -3.042301
15.798650 -3.751934 -3.027870
15.692381 -3.828564 -3.011949
15.585575 -3.903983 -2.995991
15.487794 -3.980642 -2.981833
15.403559 -4.059911 -2.970356
15.343020 -4.144803 -2.963530
15.295787 -4.232914 -2.959368
15.265175 -4.325455 -2.958525
15.255351 -4.423970 -2.961826
15.244029 -4.522271 -2.964960
15.243565 -4.624085 -2.970332
15.214010 -4.717253 -2.970157
15.192849 -4.813072 -2.971736
15.185617 -4.913511 -2.976163
15.214605 -5.026227 -2.987832
15.311639 -5.162700 -3.013052
15.432167 -5.309014 -3.043122
15.536980 -5.451916 -3.070330
15.666071 -5.605410 -3.102578
15.662818 -5.712895 -3.108818
14.573835 -5.417247 -2.899215
15.738146 -5.960196 -3.138051
15.527750 -6.320462 -3.126096
15.674437 -6.492565 -3.163588
15.363835 -6.474637 -3.108859
15.122675 -6.482563 -3.068051
15.163230 -6.610376 -3.084450
15.031560 -6.663032 -3.065925
14.895131 -6.712211 -3.046441
14.800407 -6.779085 -3.035518
14.725849 -6.854557 -3.028796
14.613158 -6.911509 -3.014284
14.510244 -6.972103 -3.001823
14.448477 -7.051871 -2.997940
14.394014 -7.134979 -2.995667
14.322249 -7.209214 -2.989882
14.228185 -7.271630 -2.979504
14.083552 -7.307043 -2.958549
13.927824 -7.335059 -2.935235
13.767745 -7.359013 -2.910961
13.609909 -7.382371 -2.887112
13.500692 -7.430701 -2.873562
13.409493 -7.488075 -2.863876
13.336124 -7.554821 -2.858053
13.376064 -7.686240 -2.876666
13.507369 -7.872329 -2.915238
13.714579 -8.106237 -2.970638
13.940969 -8.355895 -3.030724
14.024715 -8.523494 -3.060242
13.992622 -8.622000 -3.064726
13.829045 -8.638725 -3.040451
13.585615 -8.602996 -2.998480
13.354974 -8.572198 -2.959129
13.135356 -8.545487 -2.922030
12.964633 -8.548093 -2.895665
12.869484 -8.599115 -2.886145
12.849196 -8.700071 -2.893512
12.939566 -8.877540 -2.926074
13.102657 -9.108174 -2.975537
13.031569 -9.177867 -2.972126
13.619915 -9.717793 -3.119852
14.306877 -10.341000 -3.291684
14.125757 -10.342633 -3.264552
12.443400 -9.228654 -2.888781
9.973224 -14.347084 -3.258139
9.464989 -13.795811 -3.119700
9.351945 -13.811954 -3.110316
9.426964 -14.108448 -3.163998
9.397171 -14.252404 -3.183291
9.214976 -14.164435 -3.150955
9.087476 -14.157746 -3.137003
8.902332 -14.058318 -3.102811
8.713211 -13.948284 -3.066667
8.601152 -13.958786 -3.057315
8.528179 -14.032424 -3.061925
8.455418 -14.107013 -3.066821
8.363060 -14.149086 -3.064754
8.246643 -14.149617 -3.053852
8.131795 -14.151447 -3.043420
8.016565 -14.151217 -3.032735
7.926743 -14.195051 -3.031648
7.845486 -14.254307 -3.033965
7.756517 -14.299673 -3.033434
7.674621 -14.358207 -3.035804
7.583526 -14.399615 -3.034663
7.503673 -14.462536 -3.038163
7.450557 -14.578286 -3.052818
7.392372 -14.686121 -3.065843
7.336825 -14.801216 -3.080414
7.266202 -14.887616 -3.089058
7.167362 -14.916615 -3.085892
7.069376 -14.946939 -3.083133
6.967452 -14.968384 -3.078680
6.865231 -14.988485 -3.074092
6.778155 -15.041469 -3.076371
6.678641 -15.066773 -3.073107
6.576629 -15.085818 -3.068703
6.470059 -15.093504 -3.062133
6.345403 -15.057171 -3.046806
6.239647 -15.063841 -3.040351
6.133872 -15.069346 -3.033808
6.034923 -15.090771 -3.030610
5.957860 -15.167346 -3.038589
5.877778 -15.237566 -3.045374
5.807806 -15.335753 -3.057818
5.730715 -15.417150 -3.066978
5.640729 -15.464963 -3.069547
5.547920 -15.505398 -3.070758
5.440802 -15.505307 -3.064071
5.337474 -15.514894 -3.059435
5.243080 -15.550033 -3.059963
5.144719 -15.573287 -3.058269
5.059589 -15.637083 -3.064643
4.973929 -15.700607 -3.071054
4.889053 -15.768098 -3.078329
4.807754 -15.849041 -3.088314
4.711668 -15.882465 -3.089135
4.612420 -15.905191 -3.087993
4.513853 -15.930062 -3.087386
4.406059 -15.921450 -3.080419
4.297641 -15.908789 -3.072810
4.183947 -15.874160 -3.061105
4.064207 -15.812926 -3.044430
3.952769 -15.780336 -3.033429
3.841987 -15.747401 -3.022509
3.732885 -15.718438 -3.012497
3.637514 -15.746007 -3.013447
3.538742 -15.758734 -3.011670
3.448713 -15.811010 -3.017560
3.383225 -15.981100 -3.046002
3.331184 -16.226018 -3.088730
3.288976 -16.534797 -3.143607
3.220371 -16.725604 -3.176067
3.133720 -16.831178 -3.192403
3.041003 -16.909121 -3.203587
2.934864 -16.914038 -3.201047
2.833349 -16.945620 -3.203673
2.729982 -16.966802 -3.204450
2.627401 -16.993434 -3.206375
2.542431 -17.139677 -3.230964
2.465352 -17.352996 -3.268263
2.407613 -17.726981 -3.335855
2.354452 -18.170950 -3.416618
2.276716 -18.459127 -3.468110
2.181108 -18.623868 -3.496482
2.076164 -18.721396 -3.512334
1.967055 -18.789205 -3.522725
1.857445 -18.858952 -3.533598
1.743154 -18.885822 -3.536562
1.625018 -18.870352 -3.531732
1.503330 -18.806525 -3.517993
1.356385 -18.388068 -3.438094
1.191643 -17.628416 -3.294630
1.055021 -17.172583 -3.208167
0.944161 -17.079763 -3.189684
0.538798 -12.536634 -2.339834
0.652821 -17.724198 -3.307229
0.533284 -17.376917 -3.241757
0.427368 -17.409042 -3.247200
0.328685 -17.853750 -3.329710
0.224515 -18.294235 -3.411539
0.111958 -18.246149 -3.402379
0.000000 -18.080386 -3.371406
-0.104003 -16.949690 -3.160627
-0.227108 -18.505530 -3.450941
-0.548931 -17.886766 -3.336872
-0.678799 -18.429500 -3.438834
