14.249153 5.698353 -3.226984
14.282424 5.610255 -3.226662
14.317298 5.522791 -3.226825
14.338401 5.430099 -3.224011
14.359883 5.337718 -3.221416
14.382888 5.246051 -3.219295
14.410224 5.156061 -3.218271
14.425100 5.061758 -3.214597
14.438658 4.967225 -3.210765
14.435609 4.867324 -3.203386
14.423388 4.764844 -3.194126
14.395713 4.657927 -3.181608
14.371519 4.552876 -3.170027
14.353202 4.450351 -3.159903
14.348579 4.352594 -3.152946
14.361244 4.260385 -3.149926
14.404081 4.177106 -3.153640
14.451577 4.094918 -3.158479
14.507275 4.014704 -3.165208
14.550112 3.930604 -3.169233
14.572271 3.840808 -3.168866
14.583981 3.748345 -3.166351
14.599474 3.656978 -3.164784
14.622079 3.567436 -3.164879
14.661479 3.481873 -3.168723
14.696255 3.395009 -3.171677
14.718785 3.305214 -3.172103
14.727402 3.212355 -3.169652
14.725643 3.117442 -3.165097
14.719640 3.021927 -3.159762
14.721776 2.928343 -3.156304
14.733708 2.836848 -3.155071
14.752995 2.746792 -3.155533
14.783695 2.658758 -3.158550
14.807818 2.569400 -3.160276
14.827451 2.479186 -3.161160
14.827875 2.385825 -3.158070
14.804095 2.288901 -3.149954
14.772429 2.191283 -3.140297
14.748908 2.095387 -3.132505
14.733777 2.001087 -3.126624
14.732356 1.908905 -3.123778
14.734797 1.817364 -3.121872
14.715541 1.723390 -3.115494
14.698115 1.629990 -3.109628
14.659369 1.534699 -3.099380
14.612917 1.439247 -3.087634
14.589820 1.346635 -3.080950
14.581224 1.255660 -3.077449
14.595039 1.166678 -3.078796
14.625893 1.078871 -3.083850
14.641694 0.989747 -3.085843
14.649433 0.900008 -3.086253
14.635807 0.809060 -3.082278
14.620575 0.718263 -3.078084
14.606965 0.627777 -3.074350
14.600014 0.537750 -3.072135
14.608276 0.448317 -3.073236
14.616179 0.358807 -3.074378
14.615795 0.269075 -3.073892
14.614827 0.179360 -3.073399
14.605984 0.089622 -3.071366
14.591684 -0.000000 -3.068301
14.578643 -0.089455 -3.065617
14.579436 -0.178926 -3.065957
14.599825 -0.268781 -3.070533
14.631631 -0.359186 -3.077628
14.660548 -0.449921 -3.084233
14.672039 -0.540403 -3.087290
14.672708 -0.630602 -3.088187
14.672465 -0.720812 -3.089008
14.684440 -0.811749 -3.092520
14.715991 -0.904097 -3.100274
14.759784 -0.997729 -3.110732
14.784051 -1.090537 -3.117198
14.787327 -1.182049 -3.119359
14.772871 -1.272164 -3.117898
14.745747 -1.361027 -3.113877
14.709074 -1.448717 -3.107951
14.680559 -1.536918 -3.103860
14.678628 -1.627829 -3.105505
14.700002 -1.721570 -3.112204
14.725752 -1.816248 -3.119956
14.750650 -1.911276 -3.127657
14.756839 -2.004219 -3.131518
14.760371 -2.097016 -3.134939
14.756336 -2.188896 -3.136876
14.767174 -2.283193 -3.142099
14.786972 -2.379244 -3.149358
14.812447 -2.476677 -3.157961
14.856611 -2.577866 -3.170689
14.891055 -2.678066 -3.181487
14.904337 -2.774970 -3.187903
14.928126 -2.874282 -3.196703
14.957743 -2.975280 -3.206895
15.011949 -3.081937 -3.222510
15.092970 -3.195206 -3.244050
15.148827 -3.304277 -3.260352
15.176733 -3.408049 -3.270797
15.181302 -3.507060 -3.276358
15.157181 -3.599595 -3.275857
15.128942 -3.691098 -3.274587
15.106154 -3.783895 -3.274619
15.105101 -3.882283 -3.279493
15.127671 -3.987195 -3.289643
15.174073 -4.099163 -3.305141
15.206012 -4.208070 -3.317659
15.243941 -4.319438 -3.331654
15.259981 -4.425312 -3.341032
15.262990 -4.527896 -3.347710
15.271068 -4.632428 -3.355654
15.281792 -4.738269 -3.364335
15.310604 -4.850377 -3.377167
15.340185 -4.963524 -3.390346
15.364836 -5.075856 -3.402614
15.394118 -5.190509 -3.416087
15.401881 -5.298595 -3.424960
15.405476 -5.405771 -3.433071
15.388016 -5.505920 -3.436644
15.362586 -5.603388 -3.438579
15.330144 -5.698374 -3.439079
15.283044 -5.787844 -3.436415
15.219170 -5.870682 -3.430088
15.137480 -5.946128 -3.419835
15.026312 -6.009146 -3.402987
14.910280 -6.069125 -3.385079
14.790900 -6.126592 -3.366447
14.679430 -6.186215 -3.349653
14.597200 -6.257310 -3.339587
14.541705 -6.339424 -3.335728
14.493283 -6.424430 -3.333600
14.460294 -6.516259 -3.335146
14.434235 -6.611366 -3.338430
14.423767 -6.713945 -3.345474
14.441870 -6.830496 -3.359330
14.452657 -6.944433 -3.371688
14.432143 -7.043899 -3.376922
14.394665 -7.135302 -3.378333
14.339237 -7.217765 -3.375655
14.263883 -7.289874 -3.368383
14.192159 -7.363392 -3.362052
14.131887 -7.442528 -3.358529
14.088067 -7.530229 -3.359032
14.064567 -7.628989 -3.364527
14.073350 -7.745888 -3.377934
14.085084 -7.865335 -3.392271
14.107481 -7.991790 -3.409411
14.109907 -8.107925 -3.421956
14.091925 -8.213019 -3.429753
14.060132 -8.310482 -3.434361
13.998421 -8.390330 -3.431798
13.924213 -8.462414 -3.426271
13.836260 -8.525653 -3.417437
13.738048 -8.581881 -3.406121
13.645046 -8.640630 -3.396144
13.552632 -8.699069 -3.386365
13.471785 -8.764357 -3.379537
13.392929 -8.830485 -3.373285
13.339577 -8.913220 -3.373559
13.293828 -9.001127 -3.375893
13.262131 -9.098844 -3.381958
13.243251 -9.205906 -3.391484
13.207480 -9.301757 -3.396876
13.163195 -9.391924 -3.400244
13.097550 -9.466900 -3.398228
13.039722 -9.547457 -3.398360
12.975169 -9.623041 -3.396861
12.920402 -9.705872 -3.398051
12.875375 -9.796205 -3.401954
12.825977 -9.883462 -3.404861
12.772343 -9.967634 -3.406795
12.716653 -10.050330 -3.408326
12.663469 -10.135150 -3.410675
12.606627 -10.217187 -3.412187
12.553071 -10.302039 -3.414736
12.504130 -10.390925 -3.418703
12.459891 -10.484075 -3.424131
12.411949 -10.574491 -3.428723
12.351229 -10.654243 -3.429944
12.279217 -10.724233 -3.428156
12.198723 -10.786590 -3.424097
12.106872 -10.838465 -3.416918
12.017348 -10.891889 -3.410450
11.932767 -10.949342 -3.405449
11.847531 -11.005793 -3.400332
11.766092 -11.065411 -3.396382
11.683389 -11.123511 -3.392147
11.591692 -11.172605 -3.385364
11.505228 -11.226257 -3.380166
11.414551 -11.275326 -3.373789
11.322602 -11.322602 -3.367083
11.242246 -11.381063 -3.363891
11.170872 -11.448467 -3.363490
11.112448 -11.529278 -3.367136
11.058987 -11.615617 -3.372470
11.000292 -11.696850 -3.376394
10.935525 -11.771888 -3.378622
10.860927 -11.836411 -3.377950
10.778755 -11.892524 -3.375025
10.692159 -11.943444 -3.370794
10.594611 -11.981612 -3.363155
10.494604 -12.016291 -3.354751
10.383599 -12.037477 -3.342815
10.268550 -12.052846 -3.329523
10.154901 -12.068681 -3.316622
10.055534 -12.100530 -3.308356
9.959814 -12.136068 -3.301302
9.879976 -12.190554 -3.299570
9.808480 -12.255307 -3.300744
9.738535 -12.322140 -3.302588
9.679301 -12.402878 -3.308247
9.611605 -12.473181 -3.311206
9.541222 -12.540245 -3.313405
9.466187 -12.601334 -3.314136
9.386359 -12.656040 -3.313314
9.309998 -12.715406 -3.313838
9.231757 -12.772228 -3.313822
9.150919 -12.825416 -3.312991
9.076104 -12.887078 -3.314471
8.991628 -12.934999 -3.312543
8.912898 -12.991103 -3.312843
8.839966 -13.055808 -3.315449
8.769242 -13.124098 -3.319064
8.707132 -13.205843 -3.326163
8.638854 -13.278871 -3.331143
8.568431 -13.349105 -3.335510
8.492048 -13.410409 -3.337745
8.410631 -13.463908 -3.338153
8.322239 -13.506140 -3.335900
8.239667 -13.557701 -3.336085
8.146783 -13.592087 -3.332183
8.058616 -13.634011 -3.330276
7.980367 -13.692740 -3.332597
7.907334 -13.760825 -3.337296
7.840030 -13.839589 -3.344669
7.766229 -13.907606 -3.349527
7.672530 -13.940067 -3.345943
7.577351 -13.969368 -3.341754
7.481137 -13.996222 -3.337134
7.383715 -14.020213 -3.331988
7.301280 -14.072445 -3.333692
7.220491 -14.128122 -3.336323
7.126981 -14.158879 -3.333197
7.033828 -14.189953 -3.330289
6.932585 -14.204074 -3.323557
6.832571 -14.219853 -3.317376
6.740760 -14.252139 -3.315197
6.648082 -14.282271 -3.312655
6.555582 -14.312444 -3.310261
6.466501 -14.349875 -3.309679
6.381566 -14.396583 -3.311358
6.285936 -14.419012 -3.307583
6.197517 -14.457712 -3.307675
6.095011 -14.463010 -3.300269
5.992929 -14.468210 -3.293002
5.897907 -14.489640 -3.289581
5.800684 -14.505040 -3.284935
5.712741 -14.543329 -3.285606
5.624933 -14.582092 -3.286503
5.528795 -14.599014 -3.282610
5.438828 -14.631895 -3.282437
5.346215 -14.657504 -3.280761
5.253601 -14.682830 -3.279153
5.165119 -14.719661 -3.280239
5.078377 -14.761754 -3.282613
4.990169 -14.799944 -3.284235
4.902445 -14.839912 -3.286367
4.814399 -14.879301 -3.288486
4.722838 -14.908017 -3.288366
4.625688 -14.918697 -3.284399
4.526720 -14.922596 -3.279081
4.426498 -14.921192 -3.272742
4.327678 -14.923305 -3.267320
4.230764 -14.930998 -3.263259
4.136396 -14.947015 -3.261151
4.050880 -14.995341 -3.266210
3.961392 -15.029773 -3.268354
3.870437 -15.059013 -3.269487
3.780263 -15.091655 -3.271476
3.684891 -15.103501 -3.269081
3.594904 -15.137429 -3.271588
3.505342 -15.173863 -3.274752
3.415122 -15.208231 -3.277585
3.324633 -15.242153 -3.280438
3.230119 -15.257885 -3.279496
3.135405 -15.272389 -3.278417
3.043694 -15.301683 -3.280634
2.950466 -15.323801 -3.281433
2.860363 -15.362982 -3.286003
2.772401 -15.415595 -3.293556
2.683102 -15.463098 -3.300125
2.594102 -15.514740 -3.307687
2.503324 -15.558125 -3.313600
2.408463 -15.577391 -3.314493
2.313138 -15.593910 -3.314926
2.214114 -15.584592 -3.309995
2.116505 -15.583589 -3.306961
2.018414 -15.577509 -3.302980
1.920381 -15.570040 -3.298836
1.823251 -15.568225 -3.296019
1.726938 -15.572320 -3.294581
1.630145 -15.571061 -3.292136
1.534610 -15.581154 -3.292217
1.438485 -15.584950 -3.291092
1.342690 -15.591850 -3.290748
1.248048 -15.612968 -3.293526
1.152573 -15.625049 -3.294521
1.056783 -15.633384 -3.294849
0.961156 -15.644747 -3.295939
0.864972 -15.647251 -3.295286
0.768794 -15.649169 -3.294635
0.672769 -15.653834 -3.294686
0.577035 -15.666589 -3.296563
0.481306 -15.683230 -3.299381
0.385540 -15.705158 -3.303434
0.289400 -15.719855 -3.306090
0.193026 -15.728369 -3.307569
0.096481 -15.723800 -3.306422
0.000000 -15.731356 -3.307948
-0.096634 -15.748697 -3.311657
-0.193522 -15.768759 -3.316063
-0.290741 -15.792667 -3.321403
-0.388281 -15.816829 -3.326923
-0.485753 -15.828131 -3.329865
-0.583322 -15.837304 -3.332485
-0.680367 -15.830631 -3.331897
-0.777160 -15.819456 -3.330486
-0.874081 -15.812015 -3.329986
-0.970108 -15.790448 -3.326634
-1.066720 -15.780388 -3.325831
-1.163979 -15.779672 -3.327123
-1.260510 -15.768867 -3.326413
-1.356830 -15.756057 -3.325404
-1.452917 -15.741312 -3.324112
-1.548022 -15.717326 -3.320990
-1.643176 -15.695536 -3.318453
-1.737863 -15.670836 -3.315423
-1.832295 -15.645451 -3.312369
-1.922472 -15.586992 -3.302428
-2.014345 -15.546108 -3.296322
-2.104383 -15.494335 -3.288021
-2.194813 -15.448744 -3.281142
-2.287420 -15.420535 -3.278070
-2.377998 -15.380351 -3.272568
-2.470864 -15.356392 -3.270634
-2.566559 -15.350010 -3.272568
-2.662522 -15.344492 -3.274813
-2.773841 -15.423601 -3.295266
-2.851108 -15.313275 -3.275371
-2.966403 -15.406573 -3.299158
-3.039877 -15.282491 -3.276520
-3.202097 -15.597242 -3.348151
-2.220280 -10.487781 -2.254221
-3.478008 -15.945316 -3.431774
-3.417348 -15.218143 -3.279721
-3.500158 -15.151425 -3.269910
-3.612866 -15.213064 -3.287935
-3.709813 -15.205648 -3.291190
-3.799137 -15.167006 -3.287810
-3.881476 -15.101962 -3.278811
-3.982422 -15.109563 -3.285705
-4.089476 -15.138216 -3.297330
-4.187986 -15.133438 -3.301825
-4.283851 -15.118348 -3.304205
-4.373496 -15.081302 -3.301912
-4.458669 -15.029635 -3.296527
-4.545350 -14.984011 -3.292576
-4.630875 -14.935426 -3.288082
-4.721595 -14.904094 -3.287500
-4.817671 -14.889414 -3.290721
-4.908895 -14.859436 -3.290691
-5.004067 -14.841163 -3.293382
-5.095347 -14.811081 -3.293582
-5.182990 -14.770591 -3.291588
-5.269047 -14.726001 -3.288794
-5.356429 -14.685508 -3.287030
-5.446727 -14.653146 -3.287205
-5.541262 -14.631932 -3.290011
-5.637561 -14.614828 -3.293882
-5.731136 -14.590160 -3.296186
-5.821651 -14.557468 -3.296808
-5.905000 -14.507067 -3.293537
-5.993776 -14.470255 -3.293468
-6.077546 -14.421567 -3.290812
-6.159191 -14.368304 -3.287220
-6.251574 -14.340191 -3.289502
-6.337055 -14.296167 -3.288261
-6.424282 -14.256185 -3.288070
-6.515493 -14.224920 -3.290018
-6.601758 -14.182753 -3.289572
-6.688525 -14.141697 -3.289507
-6.777204 -14.104624 -3.290495
-6.865553 -14.066733 -3.291421
-6.958778 -14.038548 -3.294755
-7.048969 -14.003897 -3.296712
-7.134830 -13.960513 -3.296743
-7.222584 -13.920766 -3.297760
-7.295865 -13.853403 -3.292345
-7.376219 -13.799934 -3.290332
-7.458191 -13.749689 -3.289202
-7.536337 -13.692620 -3.286550
-7.625846 -13.656210 -3.288980
-7.717587 -13.623446 -3.292432
-7.811521 -13.594087 -3.296859
-7.907949 -13.568485 -3.302356
-7.999777 -13.534464 -3.305960
-8.089327 -13.496227 -3.308682
-8.183124 -13.464665 -3.313192
-8.279465 -13.436721 -3.318754
-8.378689 -13.412774 -3.325475
-8.475736 -13.384650 -3.331334
-8.569349 -13.350535 -3.335867
-8.660777 -13.312571 -3.339597
-8.742781 -13.259909 -3.339781
-8.818730 -13.198162 -3.337795
-8.898789 -13.142684 -3.337511
-8.968957 -13.072813 -3.333680
-9.051974 -13.021810 -3.334775
-9.137663 -12.974485 -3.336951
-9.218695 -12.920407 -3.337528
-9.305335 -12.874025 -3.340233
-9.377527 -12.807635 -3.337875
-9.448215 -12.739444 -3.335149
-9.522963 -12.676915 -3.334014
-9.595231 -12.611230 -3.332161
-9.684679 -12.568011 -3.336380
-9.779147 -12.530818 -3.342373
-9.869281 -12.487573 -3.346928
-9.960254 -12.444943 -3.351819
-10.031170 -12.377108 -3.350064
-10.103980 -12.311735 -3.349087
-10.173247 -12.242182 -3.347085
-10.231961 -12.160265 -3.341790
-10.304227 -12.094723 -3.341091
-10.367956 -12.019343 -3.337779
-10.437110 -11.950461 -3.336373
-10.522899 -11.900511 -3.340391
-10.596920 -11.837059 -3.340769
-10.673357 -11.776235 -3.342023
-10.756653 -11.722771 -3.345519
-10.824119 -11.651962 -3.344202
-10.896582 -11.586573 -3.344562
-10.957675 -11.509206 -3.341575
-11.014419 -11.427573 -3.337433
-11.074419 -11.349618 -3.334449
-11.116037 -11.253296 -3.326127
-11.170280 -11.170280 -3.321786
-11.207727 -11.071025 -3.312658
-11.241399 -10.968825 -3.302655
-11.299745 -10.891213 -3.300101
-11.353064 -10.809015 -3.296241
-11.410659 -10.731143 -3.293783
-11.485048 -10.669064 -3.296297
-11.563516 -10.610523 -3.300070
-11.644372 -10.553844 -3.304601
-11.728178 -10.499445 -3.310039
-11.802354 -10.436104 -3.312839
-11.874103 -10.370421 -3.315055
-11.931198 -10.291922 -3.313301
-11.982181 -10.208346 -3.310002
-12.042235 -10.132648 -3.309354
-12.078466 -10.037198 -3.302324
-12.120578 -9.947101 -3.297088
-12.175479 -9.867758 -3.295490
-12.223565 -9.783075 -3.292195
-12.297650 -9.719179 -3.296024
-12.385424 -9.665680 -3.303591
-12.461346 -9.602484 -3.308064
-12.525230 -9.529798 -3.309438
-12.567213 -9.440555 -3.305163
-12.619606 -9.359338 -3.303776
-12.666466 -9.274166 -3.301084
-12.719130 -9.193378 -3.300045
-12.797309 -9.130865 -3.305731
-12.849758 -9.049821 -3.304873
-12.908230 -8.973020 -3.305688
-12.975439 -8.902151 -3.308849
-13.010799 -8.809491 -3.304019
-13.056903 -8.724343 -3.302071
-13.107193 -8.642089 -3.301316
-13.123336 -8.537667 -3.292125
-13.171921 -8.454701 -3.291237
-13.214230 -8.367819 -3.288917
-13.259589 -8.282997 -3.287495
-13.326350 -8.211456 -3.291493
-13.373431 -8.127677 -3.290742
-13.427494 -8.048130 -3.291832
-13.471618 -7.962630 -3.290609
-13.501790 -7.869078 -3.286123
-13.550639 -7.786555 -3.286322
-13.589378 -7.698287 -3.284199
-13.637701 -7.615510 -3.284523
-13.677036 -7.527759 -3.282810
-13.691235 -7.426484 -3.275218
-13.708426 -7.327306 -3.268514
-13.715000 -7.222975 -3.259453
-13.731643 -7.124460 -3.252957
-13.767194 -7.036030 -3.251091
-13.786199 -6.939390 -3.245462
-13.810482 -6.845728 -3.241229
-13.836073 -6.752975 -3.237450
-13.849395 -6.654568 -3.230952
-13.869584 -6.559825 -3.226211
-13.901316 -6.470755 -3.224295
-13.938434 -6.384272 -3.223758
-13.990692 -6.304642 -3.226836
-14.042524 -6.224623 -3.229921
-14.087946 -6.141609 -3.231640
-14.115114 -6.050657 -3.229295
-14.122961 -5.951707 -3.222674
-14.154796 -5.863109 -3.221668
-14.177875 -5.771005 -3.218801
-14.211143 -5.683152 -3.218376
-14.249232 -5.597217 -3.219164
-14.271475 -5.505116 -3.216497
-14.276865 -5.406794 -3.210174
-14.291793 -5.312408 -3.206141
-14.296615 -5.214583 -3.199984
-14.290697 -5.113293 -3.191577
-14.313726 -5.022677 -3.189777
-14.312828 -4.923936 -3.182784
-14.322316 -4.829125 -3.178245
-14.340666 -4.737516 -3.175807
-14.341216 -4.640294 -3.169563
-14.354034 -4.547337 -3.166170
-14.372900 -4.456459 -3.164240
-14.396175 -4.367032 -3.163405
-14.448178 -4.286175 -3.168993
-14.516538 -4.209718 -3.178262
-14.568821 -4.128140 -3.184103
-14.617307 -4.045154 -3.189215
-14.642826 -3.955650 -3.189427
-14.651332 -3.861647 -3.186059
-14.648911 -3.765034 -3.180448
-14.667017 -3.673897 -3.179425
-14.670536 -3.579258 -3.175368
-14.674933 -3.485068 -3.171631
-14.703577 -3.396700 -3.173257
-14.711555 -3.303590 -3.170545
-14.741561 -3.215444 -3.172700
-14.755878 -3.123843 -3.171596
-14.769989 -3.032263 -3.170570
-14.782122 -2.940347 -3.169242
-14.779520 -2.845669 -3.164881
-14.782150 -2.752220 -3.161768
-14.796959 -2.661143 -3.161384
-14.800341 -2.568103 -3.158680
-14.817448 -2.477513 -3.159027
-14.842816 -2.388229 -3.161252
-14.884200 -2.301287 -3.166999
-14.926773 -2.214178 -3.173107
-15.006106 -2.131928 -3.187131
-15.089936 -2.049459 -3.202204
-15.126612 -1.959990 -3.207374
-15.188362 -1.873306 -3.217970
-15.181851 -1.778001 -3.214218
-15.172778 -1.682629 -3.210051
-15.160446 -1.587157 -3.205321
-15.123336 -1.489519 -3.195483
-15.127225 -1.396237 -3.194434
-15.075276 -1.298205 -3.181722
-15.051895 -1.203197 -3.175169
-15.058160 -1.110757 -3.174993
-15.009240 -1.014592 -3.163306
-15.015467 -0.922496 -3.163366
-15.033799 -0.831061 -3.166094
-15.027450 -0.738251 -3.163744
-15.032832 -0.646079 -3.163983
-15.068331 -0.554999 -3.170678
-15.124608 -0.464163 -3.181860
-15.132138 -0.371473 -3.182905
-15.133883 -0.278612 -3.182852
-15.193992 -0.186468 -3.195194
-15.213529 -0.093350 -3.199121
-1.151422 0.035336 -0.251432
-2.141062 0.078860 -0.467633
-1.888187 0.081150 -0.412503
-1.246096 0.061217 -0.272306
-1.381789 0.076385 -0.302055
-5.099317 0.313283 -1.115095
-13.435695 0.908224 -2.939218
-14.495956 1.069286 -3.172539
-14.720595 1.176714 -3.223222
-14.969051 1.289058 -3.279294
-15.000558 1.384546 -3.287996
-14.967028 1.474124 -3.282567
-14.939809 1.564059 -3.278640
-14.966958 1.659804 -3.286772
-14.957872 1.751770 -3.287075
-14.963725 1.845599 -3.290788
-14.938677 1.935639 -3.287829
-14.914692 2.025658 -3.285224
-14.918816 2.119526 -3.288936
-14.916993 2.212727 -3.291465
-14.928680 2.308164 -3.297107
-14.922636 2.401072 -3.298963
-14.906048 2.492328 -3.298615
-14.905139 2.586287 -3.301864
-14.889329 2.677755 -3.301939
-14.870736 2.768714 -3.301521
-14.866386 2.862394 -3.304392
-14.855679 2.954978 -3.305981
-14.829101 3.044399 -3.304161
-14.818397 3.137079 -3.306003
-14.763313 3.220188 -3.298059
-14.726593 3.306967 -3.294327
-14.683045 3.391957 -3.289180
-14.634289 3.475416 -3.282973
-14.600929 3.562276 -3.280331
-14.558652 3.646752 -3.275798
-14.519214 3.731699 -3.272015
-14.491269 3.819459 -3.270938
-14.471099 3.909260 -3.271738
-14.455923 4.000493 -3.273795
-14.457786 4.096678 -3.279848
-14.458263 4.192819 -3.285730
-14.454159 4.287949 -3.290715
-14.429655 4.377188 -3.291189
-14.388314 4.461238 -3.287941
-14.350118 4.546096 -3.285526
-14.274911 4.618840 -3.274734
-14.239974 4.704252 -3.273279
-14.259119 4.807816 -3.284399
-14.254994 4.904040 -3.290319
-14.255486 5.002240 -3.297455
-14.234559 5.093207 -3.299781
-14.182590 5.172993 -3.295030
-14.116218 5.247145 -3.287028
-14.054863 5.322720 -3.280285
-13.998404 5.399780 -3.274779
-13.936565 5.474399 -3.268109
-13.887551 5.553746 -3.264545
-13.786098 5.611535 -3.248729
-13.717703 5.682058 -3.240767
-13.685974 5.767552 -3.241571
-13.643184 5.848357 -3.239874
-13.605300 5.931200 -3.239459
-13.580828 6.019967 -3.242367
-13.578270 6.118792 -3.250659
-13.511073 6.188526 -3.243601
-13.501434 6.284619 -3.250483
-13.480408 6.375758 -3.254779
-13.487196 6.480533 -3.265957
-13.392179 6.536324 -3.252599
-13.101814 6.494448 -3.191696
-13.067406 6.577579 -3.193086
-13.052066 6.670548 -3.199279
-12.965452 6.726933 -3.188106
-13.071961 6.884320 -3.224622
-13.132956 7.019711 -3.250232
-13.155846 7.136075 -3.266673
-13.132946 7.228295 -3.271938
-13.026914 7.274437 -3.256580
-12.958804 7.341072 -3.250753
-12.921266 7.424900 -3.252704
-12.873255 7.502757 -3.252146
-12.842168 7.590583 -3.255997
-12.765704 7.651468 -3.248453
-12.638041 7.680746 -3.227899
-12.554092 7.735604 -3.218520
-12.466173 7.787366 -3.208170
-12.380000 7.839548 -3.198313
-12.331978 7.915565 -3.198394
-12.345634 8.031716 -3.214657
-12.458777 8.214562 -3.257182
-12.540961 8.379602 -3.292048
-12.592723 8.526415 -3.319307
-12.559023 8.616458 -3.324298
-12.452004 8.655879 -3.309966
-12.315309 8.673419 -3.287716
-12.146132 8.666251 -3.256686
-11.985542 8.663141 -3.227820
-11.866031 8.688101 -3.209931
-11.743361 8.709470 -3.191144
-11.623593 8.731702 -3.173097
-11.617274 8.838982 -3.186118
-11.668586 8.991599 -3.215262
-11.734639 9.157802 -3.248885
-11.782070 9.311703 -3.277774
-11.780440 9.428422 -3.293354
-11.758066 9.529461 -3.303383
-11.683327 9.588258 -3.298852
-11.587915 9.629551 -3.288534
-11.473830 9.654378 -3.272908
-11.299682 9.626883 -3.240021
-11.145328 9.614026 -3.212617
-10.988334 9.596822 -3.184277
-10.849732 9.593759 -3.161112
-10.743836 9.618231 -3.147394
-10.635997 9.639906 -3.133072
-10.548804 9.679436 -3.124824
-10.460306 9.717127 -3.116212
-10.399034 9.779762 -3.115777
-10.364567 9.867888 -3.123533
-10.315033 9.942102 -3.126931
-10.271194 10.022145 -3.132225
-10.202687 10.078243 -3.130133
-10.120179 10.120179 -3.123812
-10.063915 10.188182 -3.125683
-10.024707 10.273820 -3.133026
-9.980961 10.355350 -3.139153
-9.932229 10.432147 -3.143900
-9.899182 10.526016 -3.153824
-9.864733 10.619200 -3.163548
-9.824275 10.706651 -3.171582
-9.771731 10.781444 -3.175917
-9.709972 10.846313 -3.177415
-9.639899 10.901913 -3.176315
-9.548423 10.932917 -3.168218
-9.488108 10.999354 -3.170540
-9.423843 11.061361 -3.171686
-9.378991 11.146545 -3.179550
-9.354274 11.256655 -3.194526
-9.286521 11.315659 -3.195039
-9.206227 11.359240 -3.191334
-9.125465 11.401908 -3.187531
-9.035427 11.432500 -3.180524
-8.994345 11.525188 -3.190896
-8.979559 11.652962 -3.210957
-8.959707 11.775947 -3.229635
-8.927517 11.884260 -3.244256
-8.821634 11.894597 -3.232241
-8.659517 11.826992 -3.199371
-8.454650 11.697093 -3.150138
-8.213354 11.511377 -3.086492
-7.942755 11.277845 -3.010752
-7.450085 10.717396 -2.848876
-6.576760 9.586037 -2.537366
-4.619283 6.822252 -1.798273
-2.045104 3.060714 -0.803449
-1.782690 2.703751 -0.706860
-4.695477 7.217466 -1.879343
-8.018753 12.492739 -3.240089
-8.210145 12.965235 -3.349506
-8.267932 13.235473 -3.406150
-8.308543 13.483913 -3.456900
-8.257884 13.587676 -3.470447
-8.163891 13.620629 -3.466003
-8.059907 13.636196 -3.457315
-7.956008 13.650945 -3.448612
-7.814207 13.598760 -3.423251
-7.670235 13.539858 -3.396512
-7.528452 13.481801 -3.370297
-7.405360 13.454651 -3.352087
-7.183123 13.242582 -3.288209
-6.638063 12.418942 -3.073523
-6.312426 11.986047 -2.956746
-6.578668 12.679686 -3.117838
-7.061388 13.816811 -3.386730
-7.039031 13.984153 -3.417097
-6.970268 14.061728 -3.425538
-6.935357 14.209753 -3.451166
-6.858643 14.274114 -3.456511
-6.739989 14.250510 -3.440716
-6.605908 14.191669 -3.416658
-6.480701 14.148962 -3.396739
-6.359015 14.111351 -3.378279
-6.251130 14.102324 -3.366872
-6.162938 14.136872 -3.366028
-6.086789 14.199403 -3.371961
-6.017008 14.277916 -3.381774
-5.972034 14.417765 -3.406154
-5.914354 14.530046 -3.424042
-5.768863 14.425468 -3.390993
-5.490817 13.978361 -3.277910
-5.430527 14.078111 -3.293425
-4.175444 13.764593 -3.139498
-4.447405 14.991666 -3.413087
-4.309107 14.859265 -3.376860
-4.172754 14.726272 -3.340755
-3.950963 14.276944 -3.233262
-3.749593 13.880053 -3.138109
-1.856378 7.043216 -1.589779
-3.395979 14.700454 -3.293079
-3.371924 15.015859 -3.359036
-3.302389 15.140174 -3.382248
-3.196906 15.101000 -3.369052
-3.118672 15.190882 -3.384771
-3.020094 15.183039 -3.378831
-2.915170 15.140485 -3.365317
-2.811519 15.100641 -3.352563
-2.710070 15.069010 -3.341786
-2.614918 15.070142 -3.338416
-2.526895 15.112788 -3.344365
-2.440139 15.165433 -3.352639
-2.355399 15.234186 -3.364580
-2.267467 15.286018 -3.372891
-2.179682 15.342236 -3.382281
-2.088306 15.375964 -3.386828
-1.991921 15.373049 -3.383430
-1.896003 15.372383 -3.380659
-1.796877 15.343022 -3.371714
-1.697058 15.302888 -3.360543
-1.600298 15.285963 -3.354606
-1.502531 15.255450 -3.345824
-1.406337 15.236653 -3.339746
-1.311557 15.230328 -3.336532
-1.215457 15.205258 -3.329344
-1.120531 15.190669 -3.324581
-1.023586 15.142287 -3.312556
-0.927059 15.089749 -3.299756
-0.831789 15.046961 -3.289221
-0.737137 15.004760 -3.278946
-0.642803 14.956607 -3.267500
-0.550334 14.941655 -3.263434
-0.458556 14.941922 -3.262816
-0.367409 14.966570 -3.267645
-0.275870 14.984901 -3.271216
-0.184155 15.005559 -3.275417
-0.092179 15.022638 -3.278960
0.000000 15.013640 -3.276934
0.091983 14.990736 -3.271997
0.183417 14.945387 -3.262283
0.274141 14.890984 -3.250714
0.363587 14.810894 -3.233656
0.453377 14.773160 -3.225964
0.540309 14.669477 -3.203987
0.626102 14.568010 -3.182605
0.697750 14.203037 -3.103748
0.754159 13.642642 -2.982241
0.273636 4.453983 -0.973976
0.378798 4.398750 -0.963641
1.225532 13.277756 -2.910372
1.446720 14.688795 -3.221545
1.534396 14.656473 -3.216461
1.625406 14.656777 -3.218655
1.725477 14.733357 -3.237737
1.819109 14.748949 -3.243555
1.911256 14.750498 -3.246413
1.998091 14.711716 -3.240515
2.069268 14.565059 -3.210948
2.143338 14.449210 -3.188248
2.229986 14.423042 -3.185433
2.313338 14.377369 -3.178421
2.400657 14.357790 -3.177289
2.494580 14.376617 -3.184783
2.587607 14.388067 -3.190776
2.681906 14.404489 -3.198007
2.774937 14.412161 -3.203431
2.868914 14.423005 -3.209693
2.957816 14.407360 -3.210190
3.044149 14.379431 -3.208069
3.125079 14.327273 -3.200650
3.201869 14.258571 -3.189631
3.274741 14.175642 -3.175515
3.352006 14.114633 -3.166396
3.433094 14.071443 -3.161374
3.519751 14.051634 -3.161716
3.608204 14.038720 -3.163732
3.701008 14.041860 -3.169498
3.793937 14.044202 -3.175221
3.885324 14.039756 -3.179546
3.971221 14.015031 -3.179405
4.058906 13.996487 -3.180789
4.146891 13.978667 -3.182462
4.238545 13.972612 -3.186944
4.335144 13.981637 -3.195010
4.433949 13.996117 -3.204475
4.525300 13.985817 -3.208414
4.612342 13.961758 -3.209327
4.700084 13.939604 -3.210803
4.788594 13.919417 -3.212861
4.895915 13.952477 -3.227365
5.010752 14.004115 -3.246360
5.121517 14.041459 -3.262241
5.233642 14.079889 -3.278569
5.340633 14.102165 -3.291324
5.451043 14.131298 -3.305868
5.556368 14.145241 -3.317043
5.653733 14.137578 -3.323319
5.742888 14.108799 -3.324775
5.822260 14.056178 -3.320731
5.898170 13.995920 -3.314982
5.976430 13.941955 -3.310824
6.050064 13.877956 -3.304380
6.131679 13.832845 -3.302535
6.229650 13.824277 -3.309553
6.333285 13.827116 -3.319474
6.450518 13.857840 -3.336289
6.549866 13.848529 -3.343660
6.642309 13.823881 -3.347486
6.728810 13.786561 -3.348384
6.814577 13.747640 -3.349024
6.904480 13.716846 -3.351780
6.991642 13.680342 -3.353280
7.076620 13.639436 -3.353833
7.156664 13.589088 -3.352188
7.223616 13.514436 -3.344643
7.268128 13.399295 -3.327122
7.289252 13.243697 -3.299530
7.249013 12.981385 -3.245199
7.172055 12.660448 -3.175910
7.028710 12.231791 -3.079141
6.771532 11.618617 -2.935189
6.196359 10.483343 -2.657942
4.275505 7.133250 -1.815178
0.928468 1.527718 -0.390197
1.362077 2.150955 -0.555689
6.357428 9.904494 -2.568807
7.608239 11.694704 -3.045163
7.681492 11.650285 -3.045812
7.302743 10.929328 -2.868988
6.236587 9.210859 -2.427884
1.457273 2.124066 -0.562227
0.786278 1.116429 -0.298044
4.735772 6.637392 -1.779653
7.754850 10.728913 -2.889398
8.226448 11.235515 -3.039368
8.098485 10.919543 -2.967279
7.521437 10.012495 -2.733288
4.510319 5.928015 -1.625799
1.234496 1.542454 -0.431210
5.040636 6.219463 -1.747334
7.013477 8.545946 -2.412996
7.497562 9.022344 -2.560451
7.738958 9.197433 -2.623566
8.016455 9.409421 -2.698016
8.015808 9.292549 -2.678557
7.318900 8.380120 -2.428450
2.386337 2.698746 -0.786290
8.080900 6.715223 -2.293278
12.064216 9.900846 -3.406399
11.835981 9.592608 -3.325273
11.577535 9.266027 -3.236629
1.184393 0.936059 -0.329498
8.571378 6.604946 -2.361831
12.622500 9.603806 -3.461808
12.712273 9.549524 -3.470294
12.789107 9.485049 -3.475315
12.776022 9.354380 -3.456097
12.620837 9.122332 -3.398911
12.244603 8.736510 -3.283089
11.489588 8.091881 -3.067280
10.883296 7.565408 -2.892976
10.736744 7.366234 -2.841951
10.463268 7.084581 -2.758005
9.814269 6.557685 -2.576281
8.994953 5.930727 -2.351611
9.559635 6.219225 -2.489216
11.770439 7.555128 -3.052755
12.890910 8.163079 -3.330304
13.105779 8.186915 -3.372773
13.041242 8.035778 -3.343412
12.838400 7.802513 -3.279073
12.302063 7.373573 -3.130472
10.174506 6.013816 -2.579640
7.541802 4.395493 -1.905271
11.827355 6.796311 -2.977331
13.682655 7.751128 -3.432333
13.786862 7.698803 -3.446559
13.810367 7.601144 -3.440710
13.874188 7.525723 -3.445041
13.917989 7.439320 -3.444518
13.947366 7.345350 -3.440569
14.000811 7.264114 -3.442693
14.057136 7.184211 -3.445638
14.067610 7.081040 -3.437491
13.985248 6.932358 -3.406907
13.867500 6.768314 -3.368042
13.661126 6.564106 -3.308075
13.181735 6.234497 -3.182666
11.794372 5.490020 -2.839507
4.941283 2.263274 -1.186253
3.733531 1.682446 -0.893813
11.184175 4.957604 -2.670176
13.850520 6.038103 -3.297847
13.937274 5.974423 -3.309712
13.993509 5.897154 -3.314411
14.041084 5.816007 -3.317165
14.044678 5.716788 -3.309664
14.020604 5.606955 -3.295822
13.986189 5.493891 -3.279746
13.984684 5.394488 -3.271569
14.006235 5.304304 -3.268935
14.021850 5.212068 -3.265054
14.041233 5.121434 -3.262188
14.038673 5.023118 -3.254372
14.013003 4.917153 -3.241366
13.989126 4.812576 -3.228951
13.971098 4.710703 -3.218058
13.986938 4.620660 -3.215115
14.024198 4.537719 -3.217219
14.054323 4.452389 -3.217802
14.037261 4.352391 -3.207721
13.969603 4.237633 -3.186258
13.763472 4.083051 -3.133469
13.227244 3.835830 -3.005973
11.905459 3.373464 -2.700835
7.895047 2.184854 -1.787970
4.885629 1.319816 -1.104581
4.452348 1.173504 -1.004974
3.979060 1.022690 -0.896711
2.207582 0.552971 -0.496721
2.244482 0.489569 -0.501407
9.450006 2.000582 -2.108308
12.654492 2.597954 -2.819623
13.284086 2.642369 -2.956238
13.336449 2.567818 -2.964329
13.176822 2.453332 -2.925447
12.724731 2.288466 -2.821906
11.653543 2.022082 -2.581553
9.531959 1.593767 -2.109363
7.657505 1.232103 -1.692853
8.746489 1.352318 -1.931725
12.024987 1.783738 -2.653338
13.829518 1.964769 -3.048794
14.241641 1.934247 -3.136973
14.332231 1.857060 -3.154358
14.385523 1.774285 -3.163631
14.384631 1.684636 -3.161102
14.362802 1.592805 -3.154098
14.330126 1.500231 -3.144842
14.302491 1.408672 -3.136821
14.279392 1.317982 -3.129922
14.255656 1.227624 -3.123009
14.232007 1.137658 -3.116241
14.202030 1.047605 -3.108211
14.157714 0.957031 -3.097169
14.098878 0.866184 -3.083077
14.030399 0.775594 -3.067004
13.969752 0.686290 -3.052768
13.951527 0.599607 -3.047925
13.968444 0.514488 -3.050873
13.983385 0.429140 -3.053504
13.990860 0.343456 -3.054618
14.002752 0.257789 -3.056812
14.010350 0.171941 -3.058183
14.003669 0.085927 -3.056552
13.992869 -0.000000 -3.054137
13.973568 -0.085742 -3.049982
13.966442 -0.171403 -3.048598
13.983377 -0.257432 -3.052582
14.014571 -0.344038 -3.059795
14.051230 -0.431222 -3.068319
14.096244 -0.519195 -3.078786
14.109186 -0.606383 -3.082367
14.118706 -0.693608 -3.085319
14.137687 -0.781524 -3.090456
14.158528 -0.869848 -3.096121
14.212490 -0.960734 -3.109152
14.257705 -1.051712 -3.120396
14.225131 -1.137109 -3.114735
14.222016 -1.224727 -3.115640
14.213881 -1.311936 -3.115563
14.191582 -1.397749 -3.112496
14.140813 -1.480411 -3.103296
14.037423 -1.556721 -3.082644
13.903151 -1.628248 -3.055294
13.930294 -1.718138 -3.063518
14.036391 -1.818727 -3.089247
14.049899 -1.908205 -3.094739
13.948463 -1.981668 -3.075016
13.753323 -2.040113 -3.034699
13.140652 -2.031712 -2.902208
11.732608 -1.887793 -2.593741
3.863130 -0.645925 -0.854887
1.011329 -0.188295 -0.224530
6.100373 -1.174574 -1.355947
13.388567 -2.663151 -2.979490
14.495435 -2.975897 -3.229815
14.631945 -3.097606 -3.264405
14.783658 -3.224626 -3.302604
14.863227 -3.337649 -3.324892
14.771507 -3.412393 -3.308996
14.552661 -3.456031 -3.264661
14.257866 -3.478577 -3.203256
13.685325 -3.427995 -3.079294
11.617327 -2.985862 -2.618053
13.433508 -3.806444 -3.047483
14.877150 -4.314294 -3.380925
14.895513 -4.418881 -3.391196
14.963560 -4.539146 -3.412965
15.027628 -4.659464 -3.434034
14.978457 -4.745153 -3.429387
14.869191 -4.811127 -3.411064
14.840369 -4.902596 -3.411289
15.047646 -5.073688 -3.466026
15.162394 -5.216206 -3.499763
15.196475 -5.332433 -3.515116
15.192917 -5.436112 -3.521942
15.204503 -5.545729 -3.532450
15.218475 -5.656866 -3.543694
15.181302 -5.749314 -3.543186
15.069270 -5.812859 -3.525297
14.904731 -5.854702 -3.495143
14.752171 -5.899514 -3.467791
14.584970 -5.936710 -3.436985
14.321267 -5.932063 -3.383357
13.902774 -5.858916 -3.292920
10.862498 -4.656374 -2.579539
4.283257 -1.867276 -1.019855
9.289914 -4.117936 -2.217929
13.805582 -6.221226 -3.305077
14.356807 -6.575901 -3.446636
14.449956 -6.726135 -3.478841
14.566668 -6.889521 -3.517051
14.537586 -6.985241 -3.520312
14.399534 -7.027983 -3.497259
14.361334 -7.118780 -3.498524
14.080746 -7.087652 -3.440700
13.616175 -6.958849 -3.337551
13.937911 -7.231479 -3.427226
3.956254 -2.859577 -1.065457
9.513453 -6.965584 -2.573525
10.677669 -7.919099 -2.901552
10.029609 -7.534294 -2.737960
7.160404 -5.447980 -1.963791
1.942641 -1.634589 -0.554138
1.531497 -1.304775 -0.439135
1.428414 -1.310693 -0.423133
4.823900 -4.481174 -1.437080
6.228596 -5.857677 -1.866223
5.501239 -5.237615 -1.657889
3.423318 -3.299551 -1.037755
1.285996 -1.254814 -0.392167
3.034589 -3.148417 -0.954421
7.039226 -7.393530 -2.228162
8.462005 -8.997834 -2.695947
8.242192 -8.872566 -2.643211
6.839707 -7.454021 -2.208071
2.240886 -2.472436 -0.728312
1.139974 -1.338059 -0.383669
8.035574 -9.549948 -2.724121
9.532680 -11.471343 -3.255452
9.561957 -11.651279 -3.289803
9.485682 -11.704049 -3.288207
9.324850 -11.651032 -3.257176
8.975267 -11.356379 -3.159347
8.224525 -10.538755 -2.917789
5.859460 -7.603945 -2.095256
1.063570 -1.397874 -0.383377
4.435174 -13.707275 -3.144515
4.639932 -14.646317 -3.353342
4.537458 -14.634138 -3.344116
4.410498 -14.539463 -3.316235
4.239009 -14.289187 -3.253157
4.024123 -13.876542 -3.153530
3.017748 -10.650082 -2.416044
1.192699 -4.525175 -1.021413
3.412697 -13.278048 -2.992309
3.555702 -14.195158 -3.194010
3.427592 -14.048891 -3.156307
3.235466 -13.623907 -3.056310
3.033962 -13.133362 -2.942032
2.827223 -12.590196 -2.816417
2.777613 -12.734280 -2.844782
2.854591 -13.484031 -3.008304
2.861792 -13.939631 -3.105973
2.812751 -14.140654 -3.146859
2.716123 -14.106699 -3.135535
2.569850 -13.802639 -3.064388
2.328477 -12.947207 -2.871243
1.812039 -10.443038 -2.313396
1.594447 -9.536024 -2.110263
1.946206 -12.095645 -2.673998
2.127519 -13.760313 -3.039064
2.116215 -14.266364 -3.147902
2.033439 -14.312868 -3.155351
1.922123 -14.152372 -3.117310
1.788128 -13.800231 -3.037271
1.585316 -12.853403 -2.826691
1.302937 -11.125409 -2.444870
1.069770 -9.646440 -2.118376
0.973143 -9.295414 -2.039940
0.969188 -9.840335 -2.158181
0.914284 -9.905614 -2.171227
0.805674 -9.355809 -2.049592
0.686777 -8.591517 -1.881199
0.601087 -8.148734 -1.783406
0.568112 -8.404288 -1.838538
0.572485 -9.318340 -2.037691
0.601293 -10.877326 -2.377751
0.609092 -12.398348 -2.709374
0.565282 -13.152847 -2.873441
0.489103 -13.279240 -2.900343
0.395728 -12.894667 -2.815764
0.280469 -11.425051 -2.494427
0.149946 -8.144861 -1.778030
0.071609 -5.834960 -1.273656
0.049273 -8.030184 -1.752732
0.000000 -12.929628 -2.822070
-0.088375 -14.402670 -3.143641
-0.180284 -14.690100 -3.206559
-0.270687 -14.703366 -3.209756
-0.357008 -14.542877 -3.175140
-0.435925 -14.204476 -3.101783
-0.498486 -13.533967 -2.955978
-0.543770 -12.652325 -2.764094
-0.643630 -13.101397 -2.863010
-0.777358 -14.062310 -3.073979
-0.888521 -14.462462 -3.162584
-0.974274 -14.412798 -3.152971
-1.036087 -14.045883 -3.074037
-1.049026 -13.123221 -2.873461
-0.766994 -8.906639 -1.951192
-0.215690 -2.336843 -0.512216
-0.151322 -1.536397 -0.336962
-0.578299 -5.523880 -1.212252
-1.609269 -14.511267 -3.186701
-1.788834 -15.274352 -3.356623
-1.864927 -15.120427 -3.325249
-1.943809 -15.001730 -3.301707
-2.017496 -14.854597 -3.271987
-2.098288 -14.769324 -3.255979
-2.156394 -14.537227 -3.207669
-2.229281 -14.418484 -3.184426
-1.032581 -6.417479 -1.418719
-2.557333 -14.219736 -3.153446
-2.772008 -14.888430 -3.305449
-2.850286 -14.803500 -3.290415
-2.971191 -14.937188 -3.324119
-3.062707 -14.918279 -3.324031
-3.152485 -14.891171 -3.322239
-3.240079 -14.854503 -3.318431
-3.266139 -14.544776 -3.253655
-3.287607 -14.231335 -3.187991
-3.220159 -13.559450 -3.041850
-1.414896 -1.298289 -0.419128
-2.631160 -2.384744 -0.775067
-3.343817 -2.993493 -0.979567
-3.036084 -2.684624 -0.884575
-2.154769 -1.881899 -0.624424
-1.568133 -1.352681 -0.452011
-1.780317 -1.516760 -0.510480
-3.585997 -3.017350 -1.022905
-7.203541 -5.986138 -2.044293
-8.639917 -7.090596 -2.439529
-8.518347 -6.903793 -2.393197
-6.130968 -4.906893 -1.713981
-1.664460 -1.315469 -0.463053
-4.238919 -3.143797 -1.151885
-10.860374 -7.951777 -2.937887
-11.881051 -8.587615 -3.199680
-12.013124 -8.571349 -3.221023
-12.013019 -8.460523 -3.207016
-11.881329 -8.259181 -3.158271
-11.329058 -7.772607 -2.998733
-9.420949 -6.378836 -2.483261
-2.379434 -1.589887 -0.624610
-2.531731 -1.625050 -0.656624
-10.830960 -6.858630 -2.798126
-12.564919 -7.849051 -3.233582
-12.711537 -7.832620 -3.258885
-12.805081 -7.782264 -3.270563
-12.902848 -7.733669 -3.283352
-12.905805 -7.628197 -3.272132
-12.840335 -7.483570 -3.243829
-12.817936 -7.365525 -3.226692
-12.741568 -7.218009 -3.196259
-12.668603 -7.074350 -3.167007
-12.573868 -6.920582 -3.132649
-12.378710 -6.714536 -3.073705
-12.164205 -6.501903 -3.010479
-11.866157 -6.249286 -2.927171
-11.318082 -5.872220 -2.783030
-10.294346 -5.261154 -2.523316
-9.545586 -4.804844 -2.332511
-9.394769 -4.656899 -2.288633
-10.285711 -5.020149 -2.498122
-10.977370 -5.274574 -2.658197
-11.346966 -5.366715 -2.739670
-11.383525 -5.298779 -2.740595
-11.106335 -5.087076 -2.666296
-10.582564 -4.768833 -2.533482
-9.536457 -4.227221 -2.276790
-8.091513 -3.527477 -1.926612
-6.495177 -2.784256 -1.542423
-4.397054 -1.853009 -1.041458
-2.098063 -0.869046 -0.495661
-1.101166 -0.297472 -0.248960
-2.927704 -0.771654 -0.660835
-9.325780 -2.396893 -2.101635
-12.443468 -3.116926 -2.799867
-13.108807 -3.198234 -2.945102
-13.359911 -3.172771 -2.997086
-13.508925 -3.120721 -3.026163
-13.549031 -3.042537 -3.030908
-13.621135 -2.971055 -3.042902
-13.688221 -2.897819 -3.053859
-13.771413 -2.827256 -3.068491
-13.865385 -2.757997 -3.085601
-13.906937 -2.677661 -3.091133
-13.931744 -2.593887 -3.093051
-13.927078 -2.504701 -3.088545
-13.852917 -2.403709 -3.068770
-13.787642 -2.305327 -3.051119
-13.700046 -2.204356 -3.028684
-13.532162 -2.092244 -2.988676
-13.375907 -1.984128 -2.951421
-13.337950 -1.894932 -2.940425
-13.109524 -1.780487 -2.887604
-12.427352 -1.610241 -2.735116
-9.128448 -1.125887 -2.007507
-1.964065 -0.024104 -0.428717
-1.606045 -0.009855 -0.350548
-14.700262 0.000000 -3.326330
-14.744323 0.090471 -3.336362
-14.746675 0.180978 -3.337083
-14.759216 0.271715 -3.340236
-14.750561 0.362106 -3.338717
-14.740437 0.452373 -3.336991
-14.754952 0.543457 -3.340969
-14.757197 0.634233 -3.342295
-14.759814 0.725103 -3.343833
-14.752031 0.815485 -3.343140
-14.722226 0.904480 -3.337581
-14.692183 0.993160 -3.332089
-14.660996 1.081460 -3.326458
-14.628270 1.169334 -3.320598
-14.616248 1.258676 -3.319560
-14.605407 1.348074 -3.318914
-14.612739 1.439229 -3.322524
-14.606564 1.529171 -3.323191
-14.601232 1.619246 -3.324176
-14.593526 1.709100 -3.324746
-14.577244 1.797932 -3.323488
-14.575944 1.888639 -3.325771
-14.568032 1.978576 -3.326673
-14.567569 2.069624 -3.329405
-14.548793 2.158110 -3.328077
-14.505174 2.242684 -3.321185
-14.479436 2.329761 -3.318502
-14.448595 2.415840 -3.314769
-14.412079 2.500733 -3.309849
-14.386341 2.587296 -3.307522
-14.341123 2.670108 -3.300831
-14.306398 2.754573 -3.296666
-14.293371 2.843128 -3.297623
-14.289403 2.933599 -3.300798
-14.289188 3.025044 -3.304974
-14.272421 3.113114 -3.305451
-14.251947 3.200382 -3.305195
-14.248924 3.291670 -3.309116
-14.220594 3.377170 -3.307287
-14.225929 3.470785 -3.313419
-14.218713 3.561602 -3.316766
-14.202356 3.650261 -3.318112
-14.199189 3.742475 -3.322675
-14.183235 3.831495 -3.324381
-14.177699 3.923498 -3.328663
-14.188301 4.020318 -3.336881
-14.192872 4.115857 -3.343833
-14.185977 4.208391 -3.348229
-14.149426 4.292182 -3.345755
-14.120775 4.378285 -3.345270
-14.090298 4.463786 -3.344476
-14.049210 4.545812 -3.341281
-14.018396 4.631053 -3.340648
-14.002999 4.721459 -3.343819
-13.999541 4.816159 -3.349988
-14.019685 4.919498 -3.361968
-14.030240 5.020100 -3.371822
-14.016118 5.112274 -3.375903
-13.983012 5.197631 -3.375548
-13.917103 5.270549 -3.367381
-13.863637 5.347795 -3.362321
-13.808149 5.423956 -3.356872
-13.725745 5.489038 -3.344964
-13.634600 5.549869 -3.330988
-13.509134 5.595666 -3.308662
-13.400780 5.647365 -3.290549
-13.335212 5.716340 -3.283000
-13.269924 5.784994 -3.275604
-13.227270 5.863246 -3.273894
-13.187891 5.942875 -3.273111
-13.181625 6.037628 -3.280689
-13.197226 6.143017 -3.293891
-13.208217 6.247021 -3.306139
-13.199966 6.342521 -3.313753
-13.138117 6.412324 -3.308042
-13.141387 6.514063 -3.318866
-13.103285 6.595640 -3.319402
-13.047813 6.668375 -3.315653
-13.003420 6.746633 -3.314829
-12.698394 6.687582 -3.247471
-11.955395 6.390292 -3.067428
-10.718805 5.814160 -2.759254
-4.727629 2.602059 -1.221082
-9.226381 8.158328 -2.786832
-9.659740 8.647713 -2.933700
-7.007043 6.350813 -2.139860
-5.047446 13.578973 -3.278011
-5.454057 14.953172 -3.601601
-5.318289 14.863623 -3.572105
-5.220499 14.877485 -3.567671
-5.102173 14.830924 -3.548931
-4.969388 14.738312 -3.519407
-4.872894 14.750460 -3.515102
-4.793203 14.813795 -3.523120
-4.723799 14.911052 -3.539290
-4.640996 14.968068 -3.545997
-4.563989 15.045454 -3.557629
-4.473420 15.079358 -3.559088
-4.371088 15.072997 -3.551190
-4.260039 15.034311 -3.535850
-4.153913 15.010314 -3.524146
-4.055552 15.012638 -3.518782
-3.964154 15.040253 -3.519488
-3.880981 15.100034 -3.527838
-3.788792 15.125706 -3.528338
-3.691518 15.130660 -3.524143
-3.594844 15.137177 -3.520457
-3.492718 15.119218 -3.511230
-3.394573 15.116721 -3.505747
-3.296746 15.114300 -3.500428
-3.199537 15.113425 -3.495613
-3.103615 15.117541 -3.492095
-3.000193 15.082991 -3.479796
-2.899217 15.057634 -3.469776
-2.799031 15.033566 -3.460207
-2.699233 15.008753 -3.450619
-2.606143 15.019575 -3.449366
-2.513235 15.031090 -3.448404
-2.421347 15.048641 -3.448957
-2.332004 15.082873 -3.453458
-2.242672 15.118864 -3.458482
-2.150268 15.135199 -3.459136
-2.059307 15.162447 -3.462410
-1.965658 15.170355 -3.461397
-1.874876 15.201091 -3.465720
-1.783347 15.227495 -3.469179
-1.689976 15.239021 -3.469377
-1.597082 15.255251 -3.470776
-1.501116 15.241091 -3.465394
-1.406252 15.235729 -3.462147
-1.310948 15.223250 -3.457419
-1.215759 15.209040 -3.452432
-1.120095 15.184760 -3.445295
-1.022496 15.126166 -3.430513
-0.925346 15.061860 -3.414577
-0.829441 15.004492 -3.400353
-0.734530 14.951702 -3.387305
-0.640957 14.913652 -3.377730
-0.549394 14.916146 -3.377468
-0.457645 14.912228 -3.375881
-0.366002 14.909249 -3.374635
-0.274359 14.902857 -3.372744
-0.182683 14.885634 -3.368529
-0.091335 14.885070 -3.368211
0.000000 14.888407 -3.368903
0.091344 14.886602 -3.368557
0.182691 14.886279 -3.368675
0.273806 14.872795 -3.365940
0.364248 14.837838 -3.358472
0.453524 14.777938 -3.345480
0.542524 14.729630 -3.335235
0.631454 14.692522 -3.327647
0.720596 14.668064 -3.323047
0.809864 14.650350 -3.320097
0.900425 14.656221 -3.322617
0.991204 14.663247 -3.325526
1.083296 14.685888 -3.332106
1.175929 14.710765 -3.339324
1.266940 14.712209 -3.341354
1.357751 14.710254 -3.342739
1.449233 14.714308 -3.345618
1.540285 14.712725 -3.347344
1.632827 14.723695 -3.352056
1.724160 14.722116 -3.354042
1.815467 14.719418 -3.355902
1.902474 14.682725 -3.350135
1.987908 14.636746 -3.342364
2.071981 14.584155 -3.333195
2.154515 14.524563 -3.322534
2.239582 14.485106 -3.316590
2.324617 14.447465 -3.311175
2.410003 14.413681 -3.306759
2.493782 14.372019 -3.300649
2.575667 14.321678 -3.292656
2.656043 14.265580 -3.283443
2.737491 14.217677 -3.276222
2.819705 14.175615 -3.270455
2.903385 14.142230 -3.266802
2.989976 14.123537 -3.266660
3.072690 14.087093 -3.262530
3.155485 14.052011 -3.258828
3.233671 13.997859 -3.250810
3.314268 13.955727 -3.245687
3.402523 13.946138 -3.248251
3.495370 13.954301 -3.255087
3.594436 13.985155 -3.267367
3.694058 14.015489 -3.279688
3.792408 14.038543 -3.290466
3.886288 14.043241 -3.297095
3.971378 14.015585 -3.296261
4.054455 13.981139 -3.293949
4.136757 13.944509 -3.291237
4.220594 13.913432 -3.289953
4.309416 13.898661 -3.292650
4.403541 13.900132 -3.299338
4.494038 13.889199 -3.303226
4.579443 13.862171 -3.303419
4.662023 13.826722 -3.301726
4.739848 13.777724 -3.296908
4.820534 13.737654 -3.294336
4.907949 13.716798 -3.296494
4.998798 13.705005 -3.300969
5.097614 13.713938 -3.310592
5.217683 13.777509 -3.333605
5.335545 13.831881 -3.354619
5.434613 13.835281 -3.363468
5.543287 13.861399 -3.378022
5.673250 13.937717 -3.405041
5.563935 13.432527 -3.289899
5.408252 12.833382 -3.151225
14.054324 -7.074352 -3.560325
14.603735 -7.463563 -3.711037
14.902169 -7.731770 -3.798858
14.981657 -7.890058 -3.831390
14.563274 -7.784232 -3.736538
13.950488 -7.567110 -3.591159
14.185136 -7.807415 -3.663826
0.817161 -1.175536 -0.323951
8.300499 -12.098493 -3.319967
8.630391 -12.746285 -3.483132
8.589620 -12.855275 -3.498446
8.560766 -12.983853 -3.519076
8.515539 -13.089323 -3.533434
8.437034 -13.144396 -3.534259
8.137675 -12.850793 -3.441824
7.771116 -12.440159 -3.319011
7.370344 -11.961311 -3.179129
5.191119 -13.965492 -3.371318
5.308685 -14.554610 -3.505604
5.211740 -14.565837 -3.500540
5.097480 -14.526902 -3.483600
5.041262 -14.653868 -3.506563
4.933826 -14.632840 -3.494221
4.840538 -14.652517 -3.491762
4.742607 -14.657423 -3.485930
4.629100 -14.612127 -3.468337
4.525201 -14.594606 -3.457522
4.417632 -14.562982 -3.443544
4.312571 -14.537155 -3.431115
4.209174 -14.514663 -3.419647
4.107597 -14.496321 -3.409323
4.006170 -14.476439 -3.398802
3.911177 -14.478196 -3.393516
3.818171 -14.486382 -3.389879
3.729707 -14.511462 -3.390329
3.644964 -14.551512 -3.394397
3.558970 -14.587378 -3.397605
3.477904 -14.644764 -3.405937
3.398339 -14.710671 -3.416351
3.317035 -14.771426 -3.425669
3.232022 -14.817568 -3.431706
3.142723 -14.845059 -3.433542
3.052565 -14.868877 -3.434654
2.961527 -14.888600 -3.434948
2.871643 -14.914419 -3.436775
2.780028 -14.931503 -3.436716
2.689951 -14.957140 -3.438753
2.598873 -14.977675 -3.439743
2.507142 -14.994648 -3.440043
2.413385 -14.999161 -3.437617
2.319812 -15.004016 -3.435402
2.226572 -15.010332 -3.433655
2.135551 -15.031609 -3.435460
2.044937 -15.056639 -3.438249
1.955561 -15.092433 -3.443617
1.864776 -15.119208 -3.447051
1.772576 -15.135523 -3.448226
1.679081 -15.140779 -3.447011
1.584447 -15.134555 -3.443316
1.490813 -15.136482 -3.441608
1.397649 -15.142516 -3.440966
1.304647 -15.150081 -3.440801
1.212790 -15.171898 -3.444001
1.120327 -15.187898 -3.446007
1.026777 -15.189492 -3.444875
0.933406 -15.193053 -3.444319
0.839429 -15.185173 -3.441300
0.745943 -15.184014 -3.439935
0.652721 -15.187366 -3.439722
0.559577 -15.192605 -3.440067
0.466563 -15.202834 -3.441670
0.373382 -15.209890 -3.442684
0.279906 -15.204120 -3.440924
0.186388 -15.187494 -3.436838
0.093069 -15.167624 -3.432148
0.000000 -15.158361 -3.429987
-0.093063 -15.166704 -3.431939
-0.186328 -15.182589 -3.435728
-0.280023 -15.210498 -3.442368
-0.374331 -15.248540 -3.451432
-0.468813 -15.276138 -3.458264
-0.564228 -15.318881 -3.468659
-0.658574 -15.323557 -3.470568
-0.753152 -15.330756 -3.473179
-0.847864 -15.337769 -3.475881
-0.941781 -15.329381 -3.475225
-1.036792 -15.337649 -3.478476
-1.130958 -15.332028 -3.478709
-1.224481 -15.318153 -3.477201
-1.317800 -15.302814 -3.475489
-1.410335 -15.279966 -3.472200
-1.502056 -15.250633 -3.467563
-1.594361 -15.229256 -3.464862
-1.687578 -15.217401 -3.464455
-1.781548 -15.212136 -3.465680
