7.459 1.675 -1.608 0.700 0.700 1.000
7.496 1.635 -1.613 0.700 0.700 1.000
7.501 1.588 -1.612 0.700 0.700 1.000
7.514 1.543 -1.613 0.700 0.700 1.000
7.502 1.492 -1.608 0.700 0.700 1.000
7.523 1.448 -1.611 0.700 0.700 1.000
7.547 1.405 -1.614 0.700 0.700 1.000
7.547 1.357 -1.613 0.700 0.700 1.000
7.565 1.313 -1.615 0.700 0.700 1.000
7.569 1.266 -1.614 0.700 0.700 1.000
7.573 1.219 -1.613 0.700 0.700 1.000
7.585 1.173 -1.614 0.700 0.700 1.000
7.596 1.127 -1.615 0.700 0.700 1.000
7.598 1.079 -1.614 0.700 0.700 1.000
7.609 1.033 -1.615 0.700 0.700 1.000
7.613 0.986 -1.614 0.700 0.700 1.000
7.625 0.940 -1.615 0.700 0.700 1.000
7.629 0.893 -1.615 0.700 0.700 1.000
7.639 0.847 -1.616 0.700 0.700 1.000
7.647 0.801 -1.617 0.700 0.700 1.000
7.638 0.752 -1.614 0.700 0.700 1.000
7.644 0.706 -1.614 0.700 0.700 1.000
7.660 0.660 -1.617 0.700 0.700 1.000
7.658 0.612 -1.615 0.700 0.700 1.000
7.660 0.565 -1.615 0.700 0.700 1.000
7.659 0.518 -1.614 0.700 0.700 1.000
7.662 0.471 -1.614 0.700 0.700 1.000
7.661 0.424 -1.613 0.700 0.700 1.000
7.662 0.376 -1.613 0.700 0.700 1.000
7.669 0.330 -1.614 0.700 0.700 1.000
7.658 0.282 -1.611 0.700 0.700 1.000
7.669 0.235 -1.613 0.700 0.700 1.000
7.662 0.188 -1.612 0.700 0.700 1.000
7.664 0.141 -1.612 0.700 0.700 1.000
7.670 0.094 -1.613 0.700 0.700 1.000
7.668 0.047 -1.612 0.700 0.700 1.000
7.684 -0.000 -1.616 0.700 0.700 1.000
7.659 -0.047 -1.610 0.700 0.700 1.000
7.661 -0.094 -1.611 0.700 0.700 1.000
7.657 -0.141 -1.610 0.700 0.700 1.000
7.666 -0.188 -1.613 0.700 0.700 1.000
7.667 -0.235 -1.613 0.700 0.700 1.000
7.675 -0.283 -1.615 0.700 0.700 1.000
7.665 -0.329 -1.613 0.700 0.700 1.000
7.674 -0.377 -1.616 0.700 0.700 1.000
7.683 -0.425 -1.618 0.700 0.700 1.000
7.672 -0.471 -1.616 0.700 0.700 1.000
7.673 -0.519 -1.617 0.700 0.700 1.000
7.675 -0.566 -1.618 0.700 0.700 1.000
7.664 -0.613 -1.617 0.700 0.700 1.000
7.654 -0.659 -1.615 0.700 0.700 1.000
7.667 -0.708 -1.619 0.700 0.700 1.000
7.676 -0.756 -1.622 0.700 0.700 1.000
7.664 -0.802 -1.620 0.700 0.700 1.000
7.655 -0.849 -1.620 0.700 0.700 1.000
7.656 -0.897 -1.621 0.700 0.700 1.000
7.656 -0.944 -1.622 0.700 0.700 1.000
7.642 -0.990 -1.620 0.700 0.700 1.000
7.642 -1.038 -1.622 0.700 0.700 1.000
7.635 -1.085 -1.622 0.700 0.700 1.000
7.620 -1.130 -1.620 0.700 0.700 1.000
7.623 -1.179 -1.622 0.700 0.700 1.000
7.627 -1.227 -1.624 0.700 0.700 1.000
7.621 -1.274 -1.625 0.700 0.700 1.000
7.616 -1.321 -1.625 0.700 0.700 1.000
7.598 -1.366 -1.623 0.700 0.700 1.000
7.597 -1.414 -1.625 0.700 0.700 1.000
7.582 -1.460 -1.624 0.700 0.700 1.000
7.581 -1.508 -1.625 0.700 0.700 1.000
7.567 -1.554 -1.624 0.700 0.700 1.000
7.554 -1.599 -1.624 0.700 0.700 1.000
7.544 -1.646 -1.624 0.700 0.700 1.000
7.528 -1.690 -1.622 0.700 0.700 1.000
7.516 -1.736 -1.622 0.700 0.700 1.000
7.511 -1.784 -1.623 0.700 0.700 1.000
7.507 -1.831 -1.625 0.700 0.700 1.000
7.487 -1.875 -1.623 0.700 0.700 1.000
7.404 -1.903 -1.608 0.700 0.700 1.000
7.472 -1.969 -1.625 0.700 0.700 1.000
7.462 -2.016 -1.625 0.700 0.700 1.000
7.455 -2.063 -1.627 0.700 0.700 1.000
7.441 -2.108 -1.626 0.700 0.700 1.000
7.427 -2.154 -1.626 0.700 0.700 1.000
7.416 -2.200 -1.627 0.700 0.700 1.000
7.402 -2.246 -1.627 0.700 0.700 1.000
7.392 -2.292 -1.627 0.700 0.700 1.000
7.386 -2.340 -1.629 0.700 0.700 1.000
7.352 -2.379 -1.625 0.700 0.700 1.000
7.356 -2.430 -1.629 0.700 0.700 1.000
7.350 -2.478 -1.631 0.700 0.700 1.000
7.316 -2.517 -1.627 0.700 0.700 1.000
7.323 -2.570 -1.632 0.700 0.700 1.000
7.294 -2.610 -1.629 0.700 0.700 1.000
7.275 -2.653 -1.628 0.700 0.700 1.000
7.262 -2.699 -1.629 0.700 0.700 1.000
7.254 -2.747 -1.631 0.700 0.700 1.000
7.221 -2.785 -1.627 0.700 0.700 1.000
7.223 -2.837 -1.632 0.700 0.700 1.000
7.206 -2.882 -1.632 0.700 0.700 1.000
7.195 -2.929 -1.633 0.700 0.700 1.000
7.177 -2.973 -1.634 0.700 0.700 1.000
7.157 -3.016 -1.633 0.700 0.700 1.000
7.149 -3.065 -1.636 0.700 0.700 1.000
7.123 -3.105 -1.634 0.700 0.700 1.000
7.105 -3.150 -1.634 0.700 0.700 1.000
7.084 -3.192 -1.634 0.700 0.700 1.000
7.054 -3.231 -1.631 0.700 0.700 1.000
7.041 -3.278 -1.633 0.700 0.700 1.000
7.000 -3.311 -1.628 0.700 0.700 1.000
6.939 -3.334 -1.619 0.700 0.700 1.000
6.867 -3.352 -1.607 0.700 0.700 1.000
6.813 -3.377 -1.599 0.700 0.700 1.000
6.712 -3.378 -1.580 0.700 0.700 1.000
6.623 -3.385 -1.564 0.700 0.700 1.000
6.554 -3.400 -1.553 0.700 0.700 1.000
6.484 -3.415 -1.541 0.700 0.700 1.000
6.428 -3.436 -1.533 0.700 0.700 1.000
6.393 -3.468 -1.529 0.700 0.700 1.000
6.362 -3.501 -1.527 0.700 0.700 1.000
6.328 -3.534 -1.524 0.700 0.700 1.000
6.216 -3.521 -1.502 0.700 0.700 1.000
6.160 -3.540 -1.494 0.700 0.700 1.000
6.118 -3.566 -1.489 0.700 0.700 1.000
6.064 -3.584 -1.481 0.700 0.700 1.000
5.975 -3.581 -1.465 0.700 0.700 1.000
5.941 -3.611 -1.462 0.700 0.700 1.000
5.921 -3.649 -1.462 0.700 0.700 1.000
5.815 -3.632 -1.442 0.700 0.700 1.000
5.818 -3.684 -1.448 0.700 0.700 1.000
5.785 -3.713 -1.446 0.700 0.700 1.000
5.693 -3.704 -1.428 0.700 0.700 1.000
5.646 -3.723 -1.422 0.700 0.700 1.000
5.644 -3.771 -1.427 0.700 0.700 1.000
5.906 -3.999 -1.500 0.700 0.700 1.000
5.750 -3.945 -1.466 0.700 0.700 1.000
5.614 -3.903 -1.438 0.700 0.700 1.000
5.689 -4.007 -1.463 0.700 0.700 1.000
5.782 -4.125 -1.494 0.700 0.700 1.000
5.746 -4.153 -1.491 0.700 0.700 1.000
5.720 -4.188 -1.491 0.700 0.700 1.000
5.689 -4.219 -1.489 0.700 0.700 1.000
5.657 -4.250 -1.488 0.700 0.700 1.000
5.625 -4.280 -1.486 0.700 0.700 1.000
5.596 -4.312 -1.485 0.700 0.700 1.000
5.564 -4.342 -1.484 0.700 0.700 1.000
5.536 -4.375 -1.484 0.700 0.700 1.000
5.503 -4.404 -1.482 0.700 0.700 1.000
5.471 -4.434 -1.481 0.700 0.700 1.000
5.435 -4.460 -1.478 0.700 0.700 1.000
5.315 -4.417 -1.453 0.700 0.700 1.000
4.896 -4.120 -1.345 0.700 0.700 1.000
4.847 -4.129 -1.339 0.700 0.700 1.000
4.777 -4.121 -1.327 0.700 0.700 1.000
4.725 -4.127 -1.319 0.700 0.700 1.000
4.674 -4.133 -1.312 0.700 0.700 1.000
4.626 -4.141 -1.306 0.700 0.700 1.000
4.582 -4.153 -1.300 0.700 0.700 1.000
4.542 -4.167 -1.296 0.700 0.700 1.000
4.508 -4.187 -1.294 0.700 0.700 1.000
4.474 -4.208 -1.292 0.700 0.700 1.000
4.455 -4.241 -1.293 0.700 0.700 1.000
4.401 -4.242 -1.285 0.700 0.700 1.000
4.348 -4.243 -1.278 0.700 0.700 1.000
4.303 -4.251 -1.272 0.700 0.700 1.000
4.224 -4.224 -1.256 0.700 0.700 1.000
4.144 -4.195 -1.240 0.700 0.700 1.000
4.100 -4.202 -1.234 0.700 0.700 1.000
4.041 -4.193 -1.225 0.700 0.700 1.000
3.997 -4.198 -1.219 0.700 0.700 1.000
3.954 -4.205 -1.214 0.700 0.700 1.000
3.878 -4.226 -1.206 0.700 0.700 1.000
3.773 -4.267 -1.198 0.700 0.700 1.000
3.730 -4.271 -1.192 0.700 0.700 1.000
3.691 -4.279 -1.188 0.700 0.700 1.000
3.645 -4.278 -1.182 0.700 0.700 1.000
3.606 -4.285 -1.178 0.700 0.700 1.000
3.577 -4.304 -1.177 0.700 0.700 1.000
3.543 -4.317 -1.174 0.700 0.700 1.000
3.533 -4.359 -1.180 0.700 0.700 1.000
4.184 -5.228 -1.408 0.700 0.700 1.000
3.498 -4.426 -1.186 0.700 0.700 1.000
3.474 -4.451 -1.187 0.700 0.700 1.000
4.196 -5.445 -1.446 0.700 0.700 1.000
4.160 -5.468 -1.445 0.700 0.700 1.000
4.118 -5.482 -1.442 0.700 0.700 1.000
4.086 -5.509 -1.442 0.700 0.700 1.000
4.046 -5.526 -1.440 0.700 0.700 1.000
4.009 -5.546 -1.439 0.700 0.700 1.000
3.972 -5.567 -1.438 0.700 0.700 1.000
3.938 -5.592 -1.438 0.700 0.700 1.000
3.906 -5.619 -1.439 0.700 0.700 1.000
3.866 -5.634 -1.437 0.700 0.700 1.000
3.828 -5.653 -1.436 0.700 0.700 1.000
3.795 -5.680 -1.436 0.700 0.700 1.000
3.757 -5.698 -1.435 0.700 0.700 1.000
3.714 -5.709 -1.432 0.700 0.700 1.000
3.682 -5.737 -1.433 0.700 0.700 1.000
3.645 -5.756 -1.433 0.700 0.700 1.000
3.611 -5.781 -1.433 0.700 0.700 1.000
3.573 -5.799 -1.432 0.700 0.700 1.000
3.540 -5.824 -1.433 0.700 0.700 1.000
3.495 -5.831 -1.429 0.700 0.700 1.000
3.458 -5.850 -1.429 0.700 0.700 1.000
3.422 -5.872 -1.429 0.700 0.700 1.000
3.385 -5.890 -1.429 0.700 0.700 1.000
3.349 -5.911 -1.429 0.700 0.700 1.000
3.313 -5.932 -1.429 0.700 0.700 1.000
3.276 -5.952 -1.429 0.700 0.700 1.000
3.238 -5.969 -1.428 0.700 0.700 1.000
3.202 -5.990 -1.428 0.700 0.700 1.000
3.150 -5.980 -1.421 0.700 0.700 1.000
3.111 -5.996 -1.420 0.700 0.700 1.000
3.086 -6.039 -1.426 0.700 0.700 1.000
3.048 -6.056 -1.426 0.700 0.700 1.000
3.012 -6.077 -1.426 0.700 0.700 1.000
2.974 -6.093 -1.426 0.700 0.700 1.000
2.939 -6.116 -1.427 0.700 0.700 1.000
2.898 -6.127 -1.425 0.700 0.700 1.000
2.860 -6.145 -1.425 0.700 0.700 1.000
2.823 -6.163 -1.425 0.700 0.700 1.000
2.786 -6.182 -1.426 0.700 0.700 1.000
2.745 -6.193 -1.424 0.700 0.700 1.000
2.708 -6.212 -1.425 0.700 0.700 1.000
2.670 -6.230 -1.425 0.700 0.700 1.000
2.628 -6.235 -1.423 0.700 0.700 1.000
2.593 -6.261 -1.425 0.700 0.700 1.000
2.555 -6.277 -1.425 0.700 0.700 1.000
2.518 -6.297 -1.426 0.700 0.700 1.000
2.475 -6.301 -1.424 0.700 0.700 1.000
2.438 -6.319 -1.424 0.700 0.700 1.000
2.398 -6.331 -1.424 0.700 0.700 1.000
2.357 -6.341 -1.422 0.700 0.700 1.000
2.319 -6.357 -1.423 0.700 0.700 1.000
2.281 -6.375 -1.424 0.700 0.700 1.000
2.234 -6.366 -1.419 0.700 0.700 1.000
2.196 -6.382 -1.419 0.700 0.700 1.000
2.160 -6.406 -1.422 0.700 0.700 1.000
2.119 -6.415 -1.421 0.700 0.700 1.000
2.078 -6.421 -1.419 0.700 0.700 1.000
2.041 -6.441 -1.421 0.700 0.700 1.000
2.002 -6.458 -1.422 0.700 0.700 1.000
1.965 -6.479 -1.424 0.700 0.700 1.000
1.922 -6.477 -1.421 0.700 0.700 1.000
1.888 -6.510 -1.425 0.700 0.700 1.000
1.843 -6.505 -1.422 0.700 0.700 1.000
1.804 -6.520 -1.423 0.700 0.700 1.000
1.769 -6.549 -1.427 0.700 0.700 1.000
1.727 -6.553 -1.425 0.700 0.700 1.000
1.687 -6.565 -1.425 0.700 0.700 1.000
1.648 -6.581 -1.427 0.700 0.700 1.000
1.608 -6.591 -1.427 0.700 0.700 1.000
1.566 -6.595 -1.425 0.700 0.700 1.000
1.526 -6.604 -1.425 0.700 0.700 1.000
1.486 -6.619 -1.427 0.700 0.700 1.000
1.445 -6.623 -1.425 0.700 0.700 1.000
1.406 -6.641 -1.427 0.700 0.700 1.000
1.364 -6.642 -1.426 0.700 0.700 1.000
1.324 -6.658 -1.427 0.700 0.700 1.000
1.283 -6.664 -1.427 0.700 0.700 1.000
1.243 -6.678 -1.428 0.700 0.700 1.000
1.203 -6.688 -1.429 0.700 0.700 1.000
1.162 -6.696 -1.429 0.700 0.700 1.000
1.120 -6.701 -1.429 0.700 0.700 1.000
1.081 -6.717 -1.431 0.700 0.700 1.000
1.040 -6.724 -1.431 0.700 0.700 1.000
0.999 -6.738 -1.432 0.700 0.700 1.000
0.959 -6.750 -1.434 0.700 0.700 1.000
0.917 -6.750 -1.432 0.700 0.700 1.000
0.876 -6.763 -1.434 0.700 0.700 1.000
0.836 -6.778 -1.436 0.700 0.700 1.000
0.792 -6.765 -1.432 0.700 0.700 1.000
0.751 -6.774 -1.433 0.700 0.700 1.000
0.710 -6.783 -1.434 0.700 0.700 1.000
0.668 -6.781 -1.433 0.700 0.700 1.000
0.626 -6.785 -1.433 0.700 0.700 1.000
0.585 -6.792 -1.433 0.700 0.700 1.000
0.544 -6.804 -1.435 0.700 0.700 1.000
0.502 -6.809 -1.436 0.700 0.700 1.000
0.461 -6.817 -1.437 0.700 0.700 1.000
0.419 -6.826 -1.438 0.700 0.700 1.000
0.377 -6.826 -1.438 0.700 0.700 1.000
0.336 -6.834 -1.439 0.700 0.700 1.000
0.294 -6.838 -1.439 0.700 0.700 1.000
0.252 -6.844 -1.440 0.700 0.700 1.000
0.210 -6.840 -1.439 0.700 0.700 1.000
0.168 -6.849 -1.441 0.700 0.700 1.000
0.126 -6.851 -1.441 0.700 0.700 1.000
0.084 -6.851 -1.441 0.700 0.700 1.000
0.042 -6.859 -1.442 0.700 0.700 1.000
0.000 -6.861 -1.443 0.700 0.700 1.000
-0.042 -6.853 -1.441 0.700 0.700 1.000
-0.084 -6.858 -1.442 0.700 0.700 1.000
-0.126 -6.860 -1.443 0.700 0.700 1.000
-0.169 -6.868 -1.445 0.700 0.700 1.000
-0.211 -6.865 -1.444 0.700 0.700 1.000
-0.253 -6.873 -1.446 0.700 0.700 1.000
-0.295 -6.870 -1.446 0.700 0.700 1.000
-0.337 -6.868 -1.446 0.700 0.700 1.000
-0.380 -6.870 -1.447 0.700 0.700 1.000
-0.422 -6.867 -1.447 0.700 0.700 1.000
-0.464 -6.866 -1.447 0.700 0.700 1.000
-0.507 -6.867 -1.448 0.700 0.700 1.000
-0.549 -6.870 -1.449 0.700 0.700 1.000
-0.591 -6.858 -1.447 0.700 0.700 1.000
-0.633 -6.863 -1.449 0.700 0.700 1.000
-0.676 -6.863 -1.450 0.700 0.700 1.000
-0.718 -6.854 -1.449 0.700 0.700 1.000
-0.761 -6.858 -1.451 0.700 0.700 1.000
-0.803 -6.853 -1.451 0.700 0.700 1.000
-0.845 -6.852 -1.452 0.700 0.700 1.000
-0.887 -6.848 -1.452 0.700 0.700 1.000
-0.931 -6.852 -1.454 0.700 0.700 1.000
-0.973 -6.848 -1.454 0.700 0.700 1.000
-1.015 -6.845 -1.455 0.700 0.700 1.000
-1.058 -6.840 -1.455 0.700 0.700 1.000
-1.100 -6.835 -1.456 0.700 0.700 1.000
-1.143 -6.836 -1.457 0.700 0.700 1.000
-1.186 -6.835 -1.459 0.700 0.700 1.000
-1.228 -6.829 -1.459 0.700 0.700 1.000
-1.273 -6.835 -1.462 0.700 0.700 1.000
-1.311 -6.809 -1.458 0.700 0.700 1.000
-1.356 -6.817 -1.462 0.700 0.700 1.000
-1.399 -6.817 -1.463 0.700 0.700 1.000
-1.443 -6.815 -1.465 0.700 0.700 1.000
-1.483 -6.801 -1.464 0.700 0.700 1.000
-1.526 -6.797 -1.465 0.700 0.700 1.000
-1.570 -6.795 -1.466 0.700 0.700 1.000
-1.610 -6.780 -1.465 0.700 0.700 1.000
-1.656 -6.787 -1.469 0.700 0.700 1.000
-1.697 -6.776 -1.469 0.700 0.700 1.000
-1.740 -6.769 -1.470 0.700 0.700 1.000
-1.782 -6.762 -1.471 0.700 0.700 1.000
-1.825 -6.756 -1.471 0.700 0.700 1.000
-1.868 -6.752 -1.473 0.700 0.700 1.000
-1.913 -6.751 -1.476 0.700 0.700 1.000
-1.953 -6.734 -1.474 0.700 0.700 1.000
-1.998 -6.735 -1.477 0.700 0.700 1.000
-2.038 -6.719 -1.476 0.700 0.700 1.000
-2.082 -6.715 -1.478 0.700 0.700 1.000
-2.126 -6.711 -1.480 0.700 0.700 1.000
-2.173 -6.715 -1.484 0.700 0.700 1.000
-2.207 -6.681 -1.480 0.700 0.700 1.000
-2.251 -6.677 -1.482 0.700 0.700 1.000
-2.292 -6.662 -1.481 0.700 0.700 1.000
-2.334 -6.651 -1.482 0.700 0.700 1.000
-2.378 -6.647 -1.485 0.700 0.700 1.000
-2.420 -6.636 -1.485 0.700 0.700 1.000
-2.458 -6.613 -1.483 0.700 0.700 1.000
-2.504 -6.613 -1.487 0.700 0.700 1.000
-2.545 -6.598 -1.487 0.700 0.700 1.000
-2.592 -6.599 -1.491 0.700 0.700 1.000
-2.630 -6.578 -1.490 0.700 0.700 1.000
-2.673 -6.568 -1.491 0.700 0.700 1.000
-2.718 -6.561 -1.493 0.700 0.700 1.000
-2.758 -6.544 -1.493 0.700 0.700 1.000
-2.802 -6.536 -1.495 0.700 0.700 1.000
-2.846 -6.527 -1.497 0.700 0.700 1.000
-2.889 -6.517 -1.499 0.700 0.700 1.000
-2.926 -6.494 -1.498 0.700 0.700 1.000
-2.971 -6.486 -1.500 0.700 0.700 1.000
-3.013 -6.473 -1.501 0.700 0.700 1.000
-3.051 -6.452 -1.501 0.700 0.700 1.000
-3.098 -6.448 -1.504 0.700 0.700 1.000
-3.138 -6.429 -1.504 0.700 0.700 1.000
-3.174 -6.403 -1.503 0.700 0.700 1.000
-3.210 -6.378 -1.501 0.700 0.700 1.000
-3.247 -6.353 -1.500 0.700 0.700 1.000
-3.288 -6.338 -1.501 0.700 0.700 1.000
-3.339 -6.340 -1.507 0.700 0.700 1.000
-3.386 -6.335 -1.510 0.700 0.700 1.000
-3.432 -6.328 -1.514 0.700 0.700 1.000
-3.476 -6.315 -1.516 0.700 0.700 1.000
-3.513 -6.290 -1.515 0.700 0.700 1.000
-3.560 -6.284 -1.519 0.700 0.700 1.000
-3.592 -6.252 -1.516 0.700 0.700 1.000
-3.631 -6.230 -1.516 0.700 0.700 1.000
-3.679 -6.225 -1.520 0.700 0.700 1.000
-3.711 -6.191 -1.518 0.700 0.700 1.000
-3.758 -6.184 -1.522 0.700 0.700 1.000
-3.805 -6.176 -1.525 0.700 0.700 1.000
-3.846 -6.157 -1.527 0.700 0.700 1.000
-3.884 -6.133 -1.526 0.700 0.700 1.000
-3.922 -6.111 -1.527 0.700 0.700 1.000
-3.963 -6.092 -1.528 0.700 0.700 1.000
-3.997 -6.063 -1.527 0.700 0.700 1.000
-4.045 -6.054 -1.531 0.700 0.700 1.000
-4.090 -6.041 -1.534 0.700 0.700 1.000
-4.124 -6.011 -1.533 0.700 0.700 1.000
-4.166 -5.993 -1.535 0.700 0.700 1.000
-4.213 -5.982 -1.539 0.700 0.700 1.000
-4.256 -5.966 -1.541 0.700 0.700 1.000
-4.292 -5.938 -1.541 0.700 0.700 1.000
-4.337 -5.924 -1.544 0.700 0.700 1.000
-4.378 -5.903 -1.545 0.700 0.700 1.000
-4.418 -5.881 -1.547 0.700 0.700 1.000
-4.454 -5.854 -1.547 0.700 0.700 1.000
-4.498 -5.837 -1.550 0.700 0.700 1.000
-4.532 -5.807 -1.549 0.700 0.700 1.000
-4.570 -5.782 -1.550 0.700 0.700 1.000
-4.618 -5.770 -1.554 0.700 0.700 1.000
-4.656 -5.745 -1.555 0.700 0.700 1.000
-4.693 -5.719 -1.556 0.700 0.700 1.000
-4.730 -5.692 -1.556 0.700 0.700 1.000
-4.772 -5.672 -1.559 0.700 0.700 1.000
-4.814 -5.651 -1.561 0.700 0.700 1.000
-4.855 -5.629 -1.563 0.700 0.700 1.000
-4.906 -5.617 -1.568 0.700 0.700 1.000
-4.940 -5.587 -1.568 0.700 0.700 1.000
-4.986 -5.569 -1.572 0.700 0.700 1.000
-5.017 -5.536 -1.571 0.700 0.700 1.000
-5.074 -5.529 -1.578 0.700 0.700 1.000
-5.106 -5.497 -1.578 0.700 0.700 1.000
-5.142 -5.468 -1.578 0.700 0.700 1.000
-5.195 -5.456 -1.584 0.700 0.700 1.000
-5.238 -5.434 -1.587 0.700 0.700 1.000
-5.077 -5.203 -1.529 0.700 0.700 1.000
-5.289 -5.354 -1.583 0.700 0.700 1.000
-5.349 -5.349 -1.591 0.700 0.700 1.000
-4.570 -4.514 -1.351 0.700 0.700 1.000
-4.787 -4.671 -1.406 0.700 0.700 1.000
-4.549 -4.385 -1.329 0.700 0.700 1.000
-4.626 -4.404 -1.343 0.700 0.700 1.000
-4.702 -4.422 -1.357 0.700 0.700 1.000
-5.550 -5.156 -1.593 0.700 0.700 1.000
-5.623 -5.159 -1.605 0.700 0.700 1.000
-5.572 -5.050 -1.581 0.700 0.700 1.000
-5.732 -5.131 -1.618 0.700 0.700 1.000
-5.787 -5.117 -1.624 0.700 0.700 1.000
-5.824 -5.087 -1.626 0.700 0.700 1.000
-5.865 -5.059 -1.629 0.700 0.700 1.000
-5.571 -4.746 -1.539 0.700 0.700 1.000
-5.517 -4.642 -1.516 0.700 0.700 1.000
-5.686 -4.725 -1.554 0.700 0.700 1.000
-5.721 -4.695 -1.556 0.700 0.700 1.000
-5.733 -4.646 -1.552 0.700 0.700 1.000
-5.726 -4.583 -1.542 0.700 0.700 1.000
-5.877 -4.644 -1.575 0.700 0.700 1.000
-5.972 -4.660 -1.593 0.700 0.700 1.000
-5.944 -4.581 -1.578 0.700 0.700 1.000
-5.991 -4.558 -1.583 0.700 0.700 1.000
-6.134 -4.608 -1.613 0.700 0.700 1.000
-6.202 -4.600 -1.624 0.700 0.700 1.000
-6.319 -4.626 -1.647 0.700 0.700 1.000
-6.380 -4.611 -1.655 0.700 0.700 1.000
-6.414 -4.577 -1.657 0.700 0.700 1.000
-6.435 -4.532 -1.655 0.700 0.700 1.000
-6.560 -4.560 -1.680 0.700 0.700 1.000
-6.657 -4.567 -1.698 0.700 0.700 1.000
-6.737 -4.561 -1.711 0.700 0.700 1.000
-6.821 -4.557 -1.725 0.700 0.700 1.000
-6.927 -4.567 -1.745 0.700 0.700 1.000
-7.019 -4.566 -1.761 0.700 0.700 1.000
-7.053 -4.527 -1.762 0.700 0.700 1.000
-7.099 -4.496 -1.767 0.700 0.700 1.000
-7.128 -4.453 -1.767 0.700 0.700 1.000
-7.158 -4.411 -1.768 0.700 0.700 1.000
-7.191 -4.370 -1.769 0.700 0.700 1.000
-7.223 -4.330 -1.771 0.700 0.700 1.000
-7.254 -4.287 -1.772 0.700 0.700 1.000
-7.285 -4.246 -1.773 0.700 0.700 1.000
-7.311 -4.201 -1.773 0.700 0.700 1.000
-7.338 -4.157 -1.773 0.700 0.700 1.000
-7.359 -4.109 -1.772 0.700 0.700 1.000
-7.387 -4.066 -1.773 0.700 0.700 1.000
-7.406 -4.017 -1.772 0.700 0.700 1.000
-7.438 -3.976 -1.773 0.700 0.700 1.000
-7.459 -3.928 -1.773 0.700 0.700 1.000
-7.489 -3.886 -1.774 0.700 0.700 1.000
-7.514 -3.840 -1.774 0.700 0.700 1.000
-7.537 -3.794 -1.774 0.700 0.700 1.000
-7.558 -3.747 -1.774 0.700 0.700 1.000
-7.585 -3.702 -1.775 0.700 0.700 1.000
-7.611 -3.657 -1.776 0.700 0.700 1.000
-7.631 -3.609 -1.775 0.700 0.700 1.000
-7.650 -3.561 -1.774 0.700 0.700 1.000
-7.673 -3.515 -1.775 0.700 0.700 1.000
-7.702 -3.471 -1.776 0.700 0.700 1.000
-7.723 -3.423 -1.776 0.700 0.700 1.000
-7.754 -3.380 -1.779 0.700 0.700 1.000
-7.771 -3.331 -1.778 0.700 0.700 1.000
-7.795 -3.285 -1.779 0.700 0.700 1.000
-7.821 -3.239 -1.780 0.700 0.700 1.000
-7.832 -3.188 -1.778 0.700 0.700 1.000
-7.867 -3.146 -1.782 0.700 0.700 1.000
-7.885 -3.097 -1.781 0.700 0.700 1.000
-7.901 -3.048 -1.781 0.700 0.700 1.000
-7.928 -3.002 -1.783 0.700 0.700 1.000
-7.959 -2.958 -1.785 0.700 0.700 1.000
-7.968 -2.906 -1.783 0.700 0.700 1.000
-7.998 -2.862 -1.786 0.700 0.700 1.000
-8.012 -2.811 -1.785 0.700 0.700 1.000
-8.023 -2.760 -1.784 0.700 0.700 1.000
-8.046 -2.713 -1.785 0.700 0.700 1.000
-8.062 -2.663 -1.785 0.700 0.700 1.000
-8.084 -2.616 -1.787 0.700 0.700 1.000
-8.102 -2.567 -1.787 0.700 0.700 1.000
-8.116 -2.516 -1.787 0.700 0.700 1.000
-8.140 -2.469 -1.789 0.700 0.700 1.000
-8.152 -2.418 -1.788 0.700 0.700 1.000
-8.172 -2.370 -1.789 0.700 0.700 1.000
-8.184 -2.319 -1.789 0.700 0.700 1.000
-8.202 -2.270 -1.790 0.700 0.700 1.000
-8.219 -2.220 -1.790 0.700 0.700 1.000
-8.233 -2.170 -1.790 0.700 0.700 1.000
-8.252 -2.121 -1.792 0.700 0.700 1.000
-8.274 -2.073 -1.794 0.700 0.700 1.000
-8.281 -2.020 -1.792 0.700 0.700 1.000
-8.291 -1.969 -1.792 0.700 0.700 1.000
-8.317 -1.921 -1.795 0.700 0.700 1.000
-8.325 -1.869 -1.794 0.700 0.700 1.000
-8.351 -1.821 -1.797 0.700 0.700 1.000
-8.364 -1.771 -1.798 0.700 0.700 1.000
-8.367 -1.718 -1.796 0.700 0.700 1.000
-8.364 -1.664 -1.793 0.700 0.700 1.000
-8.383 -1.614 -1.795 0.700 0.700 1.000
-8.389 -1.562 -1.794 0.700 0.700 1.000
-8.405 -1.512 -1.796 0.700 0.700 1.000
-8.409 -1.459 -1.795 0.700 0.700 1.000
-8.419 -1.408 -1.795 0.700 0.700 1.000
-8.425 -1.356 -1.794 0.700 0.700 1.000
-8.443 -1.305 -1.796 0.700 0.700 1.000
-8.455 -1.254 -1.797 0.700 0.700 1.000
-8.453 -1.201 -1.795 0.700 0.700 1.000
-8.475 -1.151 -1.799 0.700 0.700 1.000
-8.465 -1.097 -1.795 0.700 0.700 1.000
-8.466 -1.044 -1.794 0.700 0.700 1.000
-8.482 -0.993 -1.796 0.700 0.700 1.000
-8.490 -0.942 -1.796 0.700 0.700 1.000
-8.502 -0.890 -1.798 0.700 0.700 1.000
-8.504 -0.838 -1.797 0.700 0.700 1.000
-8.488 -0.783 -1.792 0.700 0.700 1.000
-8.512 -0.733 -1.796 0.700 0.700 1.000
-8.508 -0.680 -1.795 0.700 0.700 1.000
-8.523 -0.629 -1.797 0.700 0.700 1.000
-8.524 -0.576 -1.797 0.700 0.700 1.000
-8.532 -0.524 -1.797 0.700 0.700 1.000
-8.529 -0.471 -1.796 0.700 0.700 1.000
-8.545 -0.420 -1.799 0.700 0.700 1.000
-8.545 -0.367 -1.799 0.700 0.700 1.000
-8.547 -0.315 -1.799 0.700 0.700 1.000
-8.544 -0.262 -1.797 0.700 0.700 1.000
-8.555 -0.210 -1.799 0.700 0.700 1.000
-8.546 -0.157 -1.797 0.700 0.700 1.000
-8.549 -0.105 -1.798 0.700 0.700 1.000
-8.549 -0.052 -1.798 0.700 0.700 1.000
-8.270 0.000 -1.805 0.700 0.700 1.000
-8.266 0.051 -1.804 0.700 0.700 1.000
-8.263 0.101 -1.804 0.700 0.700 1.000
-8.268 0.152 -1.805 0.700 0.700 1.000
-8.265 0.203 -1.805 0.700 0.700 1.000
-8.260 0.253 -1.804 0.700 0.700 1.000
-8.246 0.304 -1.801 0.700 0.700 1.000
-8.265 0.355 -1.806 0.700 0.700 1.000
-8.264 0.406 -1.806 0.700 0.700 1.000
-8.249 0.456 -1.803 0.700 0.700 1.000
-8.258 0.507 -1.806 0.700 0.700 1.000
-8.256 0.558 -1.806 0.700 0.700 1.000
-8.250 0.609 -1.805 0.700 0.700 1.000
-8.249 0.659 -1.806 0.700 0.700 1.000
-8.251 0.711 -1.808 0.700 0.700 1.000
-8.229 0.759 -1.804 0.700 0.700 1.000
-8.236 0.811 -1.806 0.700 0.700 1.000
-8.235 0.862 -1.807 0.700 0.700 1.000
-8.215 0.911 -1.804 0.700 0.700 1.000
-8.220 0.963 -1.806 0.700 0.700 1.000
-8.215 1.013 -1.807 0.700 0.700 1.000
-8.210 1.064 -1.807 0.700 0.700 1.000
-8.195 1.113 -1.805 0.700 0.700 1.000
-8.192 1.164 -1.806 0.700 0.700 1.000
-8.161 1.211 -1.801 0.700 0.700 1.000
-8.169 1.263 -1.804 0.700 0.700 1.000
-8.165 1.314 -1.805 0.700 0.700 1.000
-8.153 1.363 -1.804 0.700 0.700 1.000
-8.146 1.413 -1.804 0.700 0.700 1.000
-8.132 1.462 -1.803 0.700 0.700 1.000
-8.124 1.513 -1.804 0.700 0.700 1.000
-8.109 1.561 -1.802 0.700 0.700 1.000
-8.078 1.607 -1.798 0.700 0.700 1.000
-8.101 1.663 -1.805 0.700 0.700 1.000
-8.066 1.708 -1.799 0.700 0.700 1.000
-8.055 1.757 -1.799 0.700 0.700 1.000
-8.035 1.804 -1.797 0.700 0.700 1.000
-8.036 1.857 -1.800 0.700 0.700 1.000
-8.020 1.905 -1.799 0.700 0.700 1.000
-8.011 1.954 -1.800 0.700 0.700 1.000
-8.004 2.005 -1.801 0.700 0.700 1.000
-7.986 2.053 -1.800 0.700 0.700 1.000
-7.998 2.108 -1.805 0.700 0.700 1.000
-7.970 2.153 -1.802 0.700 0.700 1.000
-7.955 2.201 -1.801 0.700 0.700 1.000
-7.954 2.254 -1.804 0.700 0.700 1.000
-7.924 2.298 -1.801 0.700 0.700 1.000
-7.934 2.354 -1.806 0.700 0.700 1.000
-7.914 2.401 -1.805 0.700 0.700 1.000
-7.876 2.442 -1.800 0.700 0.700 1.000
-7.869 2.493 -1.802 0.700 0.700 1.000
-7.865 2.545 -1.804 0.700 0.700 1.000
-7.855 2.595 -1.806 0.700 0.700 1.000
-7.840 2.643 -1.806 0.700 0.700 1.000
-7.822 2.691 -1.805 0.700 0.700 1.000
-7.814 2.742 -1.808 0.700 0.700 1.000
-7.792 2.788 -1.806 0.700 0.700 1.000
-7.786 2.840 -1.809 0.700 0.700 1.000
-7.765 2.886 -1.808 0.700 0.700 1.000
-7.741 2.932 -1.807 0.700 0.700 1.000
-7.724 2.980 -1.807 0.700 0.700 1.000
-7.694 3.022 -1.804 0.700 0.700 1.000
-7.681 3.072 -1.806 0.700 0.700 1.000
-7.673 3.123 -1.808 0.700 0.700 1.000
-7.644 3.166 -1.806 0.700 0.700 1.000
-7.614 3.209 -1.803 0.700 0.700 1.000
-7.599 3.258 -1.805 0.700 0.700 1.000
-7.582 3.305 -1.805 0.700 0.700 1.000
-7.573 3.357 -1.808 0.700 0.700 1.000
-7.550 3.402 -1.808 0.700 0.700 1.000
-7.519 3.444 -1.805 0.700 0.700 1.000
-7.492 3.487 -1.804 0.700 0.700 1.000
-7.478 3.537 -1.805 0.700 0.700 1.000
-7.458 3.583 -1.806 0.700 0.700 1.000
-7.434 3.628 -1.805 0.700 0.700 1.000
-7.408 3.672 -1.805 0.700 0.700 1.000
-7.393 3.722 -1.807 0.700 0.700 1.000
-7.366 3.764 -1.805 0.700 0.700 1.000
-7.341 3.809 -1.805 0.700 0.700 1.000
-7.320 3.855 -1.806 0.700 0.700 1.000
-7.304 3.904 -1.808 0.700 0.700 1.000
-7.268 3.942 -1.805 0.700 0.700 1.000
-7.254 3.992 -1.807 0.700 0.700 1.000
-7.232 4.038 -1.808 0.700 0.700 1.000
-7.192 4.074 -1.804 0.700 0.700 1.000
-7.184 4.128 -1.808 0.700 0.700 1.000
-7.165 4.176 -1.810 0.700 0.700 1.000
-7.122 4.210 -1.806 0.700 0.700 1.000
-7.110 4.261 -1.809 0.700 0.700 1.000
-7.077 4.301 -1.808 0.700 0.700 1.000
-7.062 4.351 -1.811 0.700 0.700 1.000
-7.019 4.385 -1.806 0.700 0.700 1.000
-6.998 4.432 -1.808 0.700 0.700 1.000
-6.961 4.468 -1.805 0.700 0.700 1.000
-6.942 4.516 -1.808 0.700 0.700 1.000
-6.914 4.559 -1.808 0.700 0.700 1.000
-6.881 4.598 -1.806 0.700 0.700 1.000
-6.855 4.641 -1.807 0.700 0.700 1.000
-6.819 4.679 -1.805 0.700 0.700 1.000
-6.784 4.716 -1.803 0.700 0.700 1.000
-6.760 4.761 -1.805 0.700 0.700 1.000
-6.732 4.803 -1.805 0.700 0.700 1.000
-6.696 4.840 -1.803 0.700 0.700 1.000
-6.665 4.880 -1.803 0.700 0.700 1.000
-6.636 4.922 -1.803 0.700 0.700 1.000
-6.617 4.971 -1.806 0.700 0.700 1.000
-6.569 4.998 -1.802 0.700 0.700 1.000
-6.558 5.054 -1.807 0.700 0.700 1.000
-6.549 5.111 -1.813 0.700 0.700 1.000
-6.482 5.123 -1.803 0.700 0.700 1.000
-6.459 5.170 -1.806 0.700 0.700 1.000
-6.425 5.207 -1.805 0.700 0.700 1.000
-6.381 5.237 -1.802 0.700 0.700 1.000
-6.341 5.269 -1.799 0.700 0.700 1.000
-6.297 5.298 -1.796 0.700 0.700 1.000
-6.236 5.313 -1.788 0.700 0.700 1.000
-6.160 5.314 -1.776 0.700 0.700 1.000
-6.086 5.315 -1.764 0.700 0.700 1.000
-6.003 5.308 -1.749 0.700 0.700 1.000
-5.947 5.324 -1.742 0.700 0.700 1.000
-5.882 5.331 -1.733 0.700 0.700 1.000
-5.819 5.339 -1.724 0.700 0.700 1.000
-5.731 5.324 -1.707 0.700 0.700 1.000
-5.665 5.327 -1.697 0.700 0.700 1.000
-5.593 5.325 -1.686 0.700 0.700 1.000
-5.536 5.336 -1.678 0.700 0.700 1.000
-5.477 5.344 -1.670 0.700 0.700 1.000
-5.441 5.375 -1.669 0.700 0.700 1.000
-5.403 5.403 -1.668 0.700 0.700 1.000
-5.372 5.438 -1.668 0.700 0.700 1.000
-5.366 5.499 -1.677 0.700 0.700 1.000
-5.430 5.634 -1.708 0.700 0.700 1.000
-5.591 5.872 -1.770 0.700 0.700 1.000
-5.671 6.030 -1.807 0.700 0.700 1.000
-5.615 6.045 -1.801 0.700 0.700 1.000
-5.551 6.050 -1.792 0.700 0.700 1.000
-5.531 6.103 -1.798 0.700 0.700 1.000
-5.498 6.141 -1.799 0.700 0.700 1.000
-5.436 6.148 -1.791 0.700 0.700 1.000
-5.400 6.183 -1.792 0.700 0.700 1.000
-5.326 6.175 -1.780 0.700 0.700 1.000
-5.245 6.156 -1.765 0.700 0.700 1.000
-5.196 6.175 -1.762 0.700 0.700 1.000
-5.158 6.207 -1.762 0.700 0.700 1.000
-5.159 6.287 -1.775 0.700 0.700 1.000
-5.129 6.328 -1.778 0.700 0.700 1.000
-5.074 6.340 -1.772 0.700 0.700 1.000
-5.010 6.339 -1.764 0.700 0.700 1.000
-4.962 6.358 -1.760 0.700 0.700 1.000
-4.903 6.363 -1.753 0.700 0.700 1.000
-4.838 6.359 -1.744 0.700 0.700 1.000
-4.799 6.388 -1.744 0.700 0.700 1.000
-4.726 6.372 -1.732 0.700 0.700 1.000
-4.663 6.368 -1.723 0.700 0.700 1.000
-4.594 6.356 -1.712 0.700 0.700 1.000
-4.557 6.386 -1.712 0.700 0.700 1.000
-4.486 6.370 -1.701 0.700 0.700 1.000
-4.437 6.383 -1.697 0.700 0.700 1.000
-4.379 6.383 -1.689 0.700 0.700 1.000
-4.309 6.364 -1.677 0.700 0.700 1.000
-4.243 6.350 -1.667 0.700 0.700 1.000
-4.193 6.359 -1.663 0.700 0.700 1.000
-4.140 6.364 -1.657 0.700 0.700 1.000
-4.078 6.353 -1.648 0.700 0.700 1.000
-4.028 6.362 -1.643 0.700 0.700 1.000
-3.976 6.364 -1.638 0.700 0.700 1.000
-3.909 6.344 -1.626 0.700 0.700 1.000
-3.885 6.392 -1.633 0.700 0.700 1.000
-4.181 6.976 -1.775 0.700 0.700 1.000
-4.230 7.156 -1.814 0.700 0.700 1.000
-4.182 7.175 -1.813 0.700 0.700 1.000
-4.153 7.226 -1.819 0.700 0.700 1.000
-4.105 7.246 -1.818 0.700 0.700 1.000
-4.060 7.270 -1.817 0.700 0.700 1.000
-4.012 7.289 -1.816 0.700 0.700 1.000
-3.961 7.302 -1.813 0.700 0.700 1.000
-3.908 7.310 -1.809 0.700 0.700 1.000
-3.867 7.343 -1.811 0.700 0.700 1.000
-3.838 7.398 -1.819 0.700 0.700 1.000
-3.827 7.488 -1.835 0.700 0.700 1.000
-3.766 7.482 -1.828 0.700 0.700 1.000
-3.714 7.492 -1.825 0.700 0.700 1.000
-3.661 7.502 -1.822 0.700 0.700 1.000
-3.609 7.510 -1.819 0.700 0.700 1.000
-3.576 7.560 -1.825 0.700 0.700 1.000
-3.525 7.574 -1.823 0.700 0.700 1.000
-3.480 7.599 -1.824 0.700 0.700 1.000
-3.439 7.633 -1.827 0.700 0.700 1.000
-3.354 7.566 -1.806 0.700 0.700 1.000
-3.299 7.568 -1.802 0.700 0.700 1.000
-3.254 7.590 -1.802 0.700 0.700 1.000
-3.217 7.634 -1.808 0.700 0.700 1.000
-3.183 7.684 -1.815 0.700 0.700 1.000
-3.144 7.723 -1.820 0.700 0.700 1.000
-3.087 7.720 -1.815 0.700 0.700 1.000
-3.040 7.739 -1.815 0.700 0.700 1.000
-2.964 7.685 -1.798 0.700 0.700 1.000
-2.910 7.683 -1.793 0.700 0.700 1.000
-2.869 7.719 -1.797 0.700 0.700 1.000
-2.842 7.791 -1.810 0.700 0.700 1.000
-2.772 7.746 -1.796 0.700 0.700 1.000
-2.699 7.693 -1.779 0.700 0.700 1.000
-2.648 7.696 -1.776 0.700 0.700 1.000
-2.602 7.716 -1.777 0.700 0.700 1.000
-2.576 7.797 -1.792 0.700 0.700 1.000
-2.544 7.863 -1.804 0.700 0.700 1.000
-2.495 7.874 -1.803 0.700 0.700 1.000
-2.437 7.861 -1.796 0.700 0.700 1.000
-2.398 7.904 -1.803 0.700 0.700 1.000
-2.331 7.857 -1.789 0.700 0.700 1.000
-2.277 7.851 -1.784 0.700 0.700 1.000
-2.222 7.842 -1.779 0.700 0.700 1.000
-2.168 7.835 -1.774 0.700 0.700 1.000
-2.108 7.805 -1.765 0.700 0.700 1.000
-2.053 7.789 -1.758 0.700 0.700 1.000
-1.998 7.773 -1.752 0.700 0.700 1.000
-1.953 7.795 -1.754 0.700 0.700 1.000
-1.916 7.852 -1.764 0.700 0.700 1.000
-1.864 7.849 -1.761 0.700 0.700 1.000
-1.810 7.835 -1.755 0.700 0.700 1.000
-1.764 7.855 -1.757 0.700 0.700 1.000
-1.710 7.841 -1.752 0.700 0.700 1.000
-1.661 7.846 -1.750 0.700 0.700 1.000
-1.612 7.850 -1.749 0.700 0.700 1.000
-1.564 7.862 -1.750 0.700 0.700 1.000
-1.512 7.854 -1.746 0.700 0.700 1.000
-1.460 7.842 -1.741 0.700 0.700 1.000
-1.411 7.845 -1.740 0.700 0.700 1.000
-1.355 7.807 -1.730 0.700 0.700 1.000
-1.312 7.848 -1.737 0.700 0.700 1.000
-1.263 7.850 -1.736 0.700 0.700 1.000
-1.213 7.844 -1.732 0.700 0.700 1.000
-1.164 7.844 -1.731 0.700 0.700 1.000
-1.115 7.845 -1.729 0.700 0.700 1.000
-1.068 7.862 -1.732 0.700 0.700 1.000
-1.018 7.855 -1.729 0.700 0.700 1.000
-0.967 7.838 -1.724 0.700 0.700 1.000
-0.921 7.861 -1.727 0.700 0.700 1.000
-0.872 7.860 -1.726 0.700 0.700 1.000
-0.820 7.834 -1.719 0.700 0.700 1.000
-0.774 7.857 -1.723 0.700 0.700 1.000
-0.723 7.838 -1.718 0.700 0.700 1.000
-0.674 7.824 -1.714 0.700 0.700 1.000
-0.627 7.838 -1.716 0.700 0.700 1.000
-0.578 7.840 -1.716 0.700 0.700 1.000
-0.530 7.843 -1.716 0.700 0.700 1.000
-0.482 7.839 -1.714 0.700 0.700 1.000
-0.433 7.836 -1.713 0.700 0.700 1.000
-0.386 7.850 -1.715 0.700 0.700 1.000
-0.337 7.843 -1.713 0.700 0.700 1.000
-0.289 7.841 -1.712 0.700 0.700 1.000
-0.241 7.844 -1.713 0.700 0.700 1.000
-0.192 7.839 -1.712 0.700 0.700 1.000
-0.144 7.832 -1.710 0.700 0.700 1.000
-0.096 7.816 -1.706 0.700 0.700 1.000
-0.048 7.796 -1.702 0.700 0.700 1.000
0.000 7.838 -1.711 0.700 0.700 1.000
0.048 7.834 -1.710 0.700 0.700 1.000
0.096 7.849 -1.713 0.700 0.700 1.000
0.144 7.839 -1.711 0.700 0.700 1.000
0.193 7.843 -1.712 0.700 0.700 1.000
0.241 7.842 -1.712 0.700 0.700 1.000
0.289 7.835 -1.711 0.700 0.700 1.000
0.337 7.835 -1.712 0.700 0.700 1.000
0.385 7.831 -1.711 0.700 0.700 1.000
0.433 7.830 -1.712 0.700 0.700 1.000
0.481 7.823 -1.711 0.700 0.700 1.000
0.527 7.801 -1.707 0.700 0.700 1.000
0.575 7.791 -1.705 0.700 0.700 1.000
0.624 7.802 -1.708 0.700 0.700 1.000
0.673 7.811 -1.711 0.700 0.700 1.000
0.722 7.824 -1.715 0.700 0.700 1.000
0.771 7.823 -1.716 0.700 0.700 1.000
0.819 7.822 -1.717 0.700 0.700 1.000
0.867 7.822 -1.718 0.700 0.700 1.000
0.916 7.818 -1.718 0.700 0.700 1.000
0.963 7.810 -1.718 0.700 0.700 1.000
1.012 7.813 -1.720 0.700 0.700 1.000
1.061 7.815 -1.721 0.700 0.700 1.000
1.109 7.808 -1.721 0.700 0.700 1.000
1.155 7.784 -1.718 0.700 0.700 1.000
1.200 7.760 -1.714 0.700 0.700 1.000
1.244 7.729 -1.709 0.700 0.700 1.000
1.291 7.721 -1.709 0.700 0.700 1.000
1.349 7.774 -1.722 0.700 0.700 1.000
1.402 7.793 -1.728 0.700 0.700 1.000
1.453 7.806 -1.733 0.700 0.700 1.000
1.503 7.804 -1.735 0.700 0.700 1.000
1.549 7.789 -1.733 0.700 0.700 1.000
1.608 7.835 -1.746 0.700 0.700 1.000
1.656 7.821 -1.745 0.700 0.700 1.000
1.683 7.717 -1.724 0.700 0.700 1.000
1.744 7.766 -1.737 0.700 0.700 1.000
1.778 7.698 -1.724 0.700 0.700 1.000
1.816 7.647 -1.716 0.700 0.700 1.000
1.863 7.636 -1.716 0.700 0.700 1.000
1.917 7.652 -1.722 0.700 0.700 1.000
1.994 7.758 -1.748 0.700 0.700 1.000
2.038 7.733 -1.745 0.700 0.700 1.000
2.081 7.702 -1.741 0.700 0.700 1.000
2.122 7.667 -1.736 0.700 0.700 1.000
2.169 7.656 -1.737 0.700 0.700 1.000
2.215 7.638 -1.736 0.700 0.700 1.000
2.268 7.646 -1.741 0.700 0.700 1.000
2.302 7.590 -1.731 0.700 0.700 1.000
2.348 7.572 -1.730 0.700 0.700 1.000
2.400 7.576 -1.735 0.700 0.700 1.000
2.439 7.538 -1.729 0.700 0.700 1.000
2.470 7.476 -1.718 0.700 0.700 1.000
2.518 7.468 -1.720 0.700 0.700 1.000
2.567 7.462 -1.722 0.700 0.700 1.000
2.624 7.479 -1.730 0.700 0.700 1.000
2.670 7.463 -1.730 0.700 0.700 1.000
2.719 7.455 -1.732 0.700 0.700 1.000
2.751 7.402 -1.724 0.700 0.700 1.000
2.792 7.372 -1.721 0.700 0.700 1.000
2.840 7.362 -1.722 0.700 0.700 1.000
2.890 7.357 -1.725 0.700 0.700 1.000
2.923 7.310 -1.718 0.700 0.700 1.000
2.972 7.301 -1.721 0.700 0.700 1.000
3.016 7.281 -1.720 0.700 0.700 1.000
3.066 7.275 -1.723 0.700 0.700 1.000
3.084 7.195 -1.709 0.700 0.700 1.000
3.132 7.185 -1.711 0.700 0.700 1.000
3.177 7.168 -1.711 0.700 0.700 1.000
3.235 7.178 -1.719 0.700 0.700 1.000
3.287 7.177 -1.723 0.700 0.700 1.000
3.340 7.176 -1.728 0.700 0.700 1.000
3.372 7.130 -1.721 0.700 0.700 1.000
3.253 6.769 -1.639 0.700 0.700 1.000
3.079 6.308 -1.532 0.700 0.700 1.000
3.111 6.277 -1.529 0.700 0.700 1.000
3.170 6.298 -1.539 0.700 0.700 1.000
3.221 6.303 -1.545 0.700 0.700 1.000
3.269 6.301 -1.549 0.700 0.700 1.000
3.317 6.299 -1.554 0.700 0.700 1.000
3.366 6.298 -1.559 0.700 0.700 1.000
3.423 6.311 -1.567 0.700 0.700 1.000
3.468 6.300 -1.570 0.700 0.700 1.000
3.523 6.309 -1.577 0.700 0.700 1.000
3.568 6.298 -1.580 0.700 0.700 1.000
3.623 6.304 -1.587 0.700 0.700 1.000
3.681 6.316 -1.596 0.700 0.700 1.000
3.730 6.310 -1.600 0.700 0.700 1.000
3.781 6.307 -1.605 0.700 0.700 1.000
3.831 6.304 -1.610 0.700 0.700 1.000
3.878 6.293 -1.613 0.700 0.700 1.000
3.942 6.311 -1.624 0.700 0.700 1.000
3.986 6.295 -1.626 0.700 0.700 1.000
4.037 6.290 -1.631 0.700 0.700 1.000
4.089 6.285 -1.637 0.700 0.700 1.000
4.135 6.271 -1.639 0.700 0.700 1.000
4.183 6.260 -1.643 0.700 0.700 1.000
4.239 6.260 -1.650 0.700 0.700 1.000
4.338 6.323 -1.674 0.700 0.700 1.000
4.333 6.234 -1.657 0.700 0.700 1.000
4.348 6.173 -1.648 0.700 0.700 1.000
4.348 6.094 -1.634 0.700 0.700 1.000
4.391 6.075 -1.636 0.700 0.700 1.000
4.430 6.050 -1.637 0.700 0.700 1.000
4.471 6.029 -1.638 0.700 0.700 1.000
4.534 6.036 -1.648 0.700 0.700 1.000
4.595 6.039 -1.656 0.700 0.700 1.000
4.602 5.972 -1.646 0.700 0.700 1.000
4.652 5.960 -1.650 0.700 0.700 1.000
4.648 5.881 -1.636 0.700 0.700 1.000
4.672 5.837 -1.632 0.700 0.700 1.000
4.735 5.842 -1.641 0.700 0.700 1.000
4.749 5.787 -1.634 0.700 0.700 1.000
4.797 5.773 -1.638 0.700 0.700 1.000
4.830 5.740 -1.637 0.700 0.700 1.000
4.853 5.696 -1.633 0.700 0.700 1.000
4.776 5.537 -1.596 0.700 0.700 1.000
4.680 5.359 -1.553 0.700 0.700 1.000
4.717 5.335 -1.554 0.700 0.700 1.000
4.747 5.302 -1.553 0.700 0.700 1.000
4.778 5.272 -1.553 0.700 0.700 1.000
4.814 5.247 -1.554 0.700 0.700 1.000
4.864 5.236 -1.560 0.700 0.700 1.000
4.917 5.229 -1.567 0.700 0.700 1.000
4.968 5.218 -1.572 0.700 0.700 1.000
5.030 5.219 -1.582 0.700 0.700 1.000
5.099 5.225 -1.593 0.700 0.700 1.000
5.169 5.233 -1.605 0.700 0.700 1.000
5.229 5.229 -1.614 0.700 0.700 1.000
5.284 5.220 -1.621 0.700 0.700 1.000
5.350 5.220 -1.631 0.700 0.700 1.000
5.409 5.213 -1.640 0.700 0.700 1.000
5.466 5.204 -1.647 0.700 0.700 1.000
5.531 5.201 -1.657 0.700 0.700 1.000
5.604 5.206 -1.669 0.700 0.700 1.000
5.656 5.189 -1.675 0.700 0.700 1.000
5.685 5.152 -1.675 0.700 0.700 1.000
5.735 5.134 -1.680 0.700 0.700 1.000
5.765 5.098 -1.680 0.700 0.700 1.000
5.789 5.055 -1.677 0.700 0.700 1.000
5.812 5.014 -1.675 0.700 0.700 1.000
5.846 4.980 -1.676 0.700 0.700 1.000
5.881 4.948 -1.678 0.700 0.700 1.000
5.905 4.907 -1.676 0.700 0.700 1.000
5.934 4.870 -1.675 0.700 0.700 1.000
5.960 4.831 -1.675 0.700 0.700 1.000
5.983 4.789 -1.673 0.700 0.700 1.000
6.009 4.749 -1.672 0.700 0.700 1.000
6.038 4.712 -1.672 0.700 0.700 1.000
6.068 4.676 -1.672 0.700 0.700 1.000
6.092 4.635 -1.671 0.700 0.700 1.000
6.121 4.598 -1.671 0.700 0.700 1.000
6.135 4.550 -1.667 0.700 0.700 1.000
6.153 4.505 -1.665 0.700 0.700 1.000
6.200 4.481 -1.670 0.700 0.700 1.000
6.223 4.440 -1.669 0.700 0.700 1.000
6.234 4.390 -1.664 0.700 0.700 1.000
6.269 4.358 -1.666 0.700 0.700 1.000
6.285 4.312 -1.663 0.700 0.700 1.000
6.320 4.279 -1.666 0.700 0.700 1.000
6.343 4.238 -1.665 0.700 0.700 1.000
6.371 4.200 -1.665 0.700 0.700 1.000
6.391 4.158 -1.664 0.700 0.700 1.000
6.415 4.118 -1.664 0.700 0.700 1.000
6.434 4.074 -1.662 0.700 0.700 1.000
6.467 4.040 -1.664 0.700 0.700 1.000
6.468 3.986 -1.658 0.700 0.700 1.000
6.500 3.950 -1.660 0.700 0.700 1.000
6.512 3.903 -1.657 0.700 0.700 1.000
6.536 3.863 -1.657 0.700 0.700 1.000
6.561 3.824 -1.657 0.700 0.700 1.000
6.567 3.774 -1.653 0.700 0.700 1.000
6.596 3.737 -1.655 0.700 0.700 1.000
6.613 3.693 -1.653 0.700 0.700 1.000
6.629 3.648 -1.651 0.700 0.700 1.000
6.650 3.607 -1.651 0.700 0.700 1.000
6.666 3.563 -1.650 0.700 0.700 1.000
6.681 3.519 -1.648 0.700 0.700 1.000
6.701 3.477 -1.648 0.700 0.700 1.000
6.727 3.438 -1.649 0.700 0.700 1.000
6.740 3.392 -1.647 0.700 0.700 1.000
6.757 3.349 -1.646 0.700 0.700 1.000
6.777 3.308 -1.646 0.700 0.700 1.000
6.787 3.261 -1.643 0.700 0.700 1.000
6.817 3.224 -1.646 0.700 0.700 1.000
6.829 3.179 -1.644 0.700 0.700 1.000
6.829 3.128 -1.639 0.700 0.700 1.000
6.850 3.087 -1.640 0.700 0.700 1.000
6.869 3.045 -1.640 0.700 0.700 1.000
6.880 2.999 -1.638 0.700 0.700 1.000
6.890 2.953 -1.636 0.700 0.700 1.000
6.921 2.917 -1.639 0.700 0.700 1.000
6.940 2.875 -1.640 0.700 0.700 1.000
6.950 2.829 -1.638 0.700 0.700 1.000
6.949 2.779 -1.634 0.700 0.700 1.000
6.973 2.739 -1.635 0.700 0.700 1.000
6.994 2.698 -1.636 0.700 0.700 1.000
7.007 2.653 -1.635 0.700 0.700 1.000
7.015 2.608 -1.634 0.700 0.700 1.000
7.033 2.565 -1.634 0.700 0.700 1.000
7.036 2.517 -1.631 0.700 0.700 1.000
7.041 2.471 -1.629 0.700 0.700 1.000
7.076 2.434 -1.633 0.700 0.700 1.000
7.066 2.382 -1.628 0.700 0.700 1.000
7.094 2.344 -1.631 0.700 0.700 1.000
7.103 2.298 -1.629 0.700 0.700 1.000
7.101 2.250 -1.626 0.700 0.700 1.000
7.125 2.209 -1.628 0.700 0.700 1.000
7.138 2.165 -1.628 0.700 0.700 1.000
7.144 2.119 -1.626 0.700 0.700 1.000
7.160 2.076 -1.627 0.700 0.700 1.000
7.171 2.032 -1.627 0.700 0.700 1.000
7.166 1.983 -1.623 0.700 0.700 1.000
7.188 1.942 -1.625 0.700 0.700 1.000
7.190 1.895 -1.623 0.700 0.700 1.000
7.208 1.853 -1.624 0.700 0.700 1.000
7.213 1.807 -1.623 0.700 0.700 1.000
7.201 1.757 -1.618 0.700 0.700 1.000
7.207 1.712 -1.617 0.700 0.700 1.000
7.230 1.670 -1.620 0.700 0.700 1.000
7.236 1.625 -1.619 0.700 0.700 1.000
7.263 1.584 -1.622 0.700 0.700 1.000
7.272 1.540 -1.622 0.700 0.700 1.000
7.280 1.495 -1.622 0.700 0.700 1.000
7.291 1.450 -1.622 0.700 0.700 1.000
7.308 1.407 -1.624 0.700 0.700 1.000
7.306 1.360 -1.622 0.700 0.700 1.000
7.309 1.314 -1.621 0.700 0.700 1.000
7.328 1.271 -1.623 0.700 0.700 1.000
7.331 1.226 -1.622 0.700 0.700 1.000
7.342 1.181 -1.623 0.700 0.700 1.000
7.351 1.136 -1.623 0.700 0.700 1.000
7.363 1.092 -1.625 0.700 0.700 1.000
7.364 1.046 -1.623 0.700 0.700 1.000
7.379 1.002 -1.625 0.700 0.700 1.000
7.389 0.957 -1.626 0.700 0.700 1.000
7.403 0.913 -1.628 0.700 0.700 1.000
7.401 0.867 -1.626 0.700 0.700 1.000
7.398 0.820 -1.625 0.700 0.700 1.000
7.405 0.775 -1.625 0.700 0.700 1.000
7.410 0.730 -1.625 0.700 0.700 1.000
7.414 0.684 -1.625 0.700 0.700 1.000
7.422 0.639 -1.626 0.700 0.700 1.000
7.414 0.593 -1.623 0.700 0.700 1.000
7.419 0.547 -1.624 0.700 0.700 1.000
7.430 0.502 -1.625 0.700 0.700 1.000
7.422 0.456 -1.623 0.700 0.700 1.000
7.422 0.410 -1.622 0.700 0.700 1.000
7.434 0.365 -1.625 0.700 0.700 1.000
7.430 0.319 -1.623 0.700 0.700 1.000
7.425 0.273 -1.622 0.700 0.700 1.000
7.438 0.228 -1.624 0.700 0.700 1.000
7.435 0.183 -1.623 0.700 0.700 1.000
7.440 0.137 -1.624 0.700 0.700 1.000
7.441 0.091 -1.624 0.700 0.700 1.000
7.442 0.046 -1.624 0.700 0.700 1.000
7.447 -0.000 -1.625 0.700 0.700 1.000
7.441 -0.046 -1.624 0.700 0.700 1.000
7.429 -0.091 -1.622 0.700 0.700 1.000
7.448 -0.137 -1.626 0.700 0.700 1.000
7.441 -0.183 -1.625 0.700 0.700 1.000
7.438 -0.228 -1.624 0.700 0.700 1.000
7.442 -0.274 -1.625 0.700 0.700 1.000
7.434 -0.320 -1.624 0.700 0.700 1.000
7.446 -0.366 -1.627 0.700 0.700 1.000
7.457 -0.412 -1.630 0.700 0.700 1.000
7.457 -0.458 -1.631 0.700 0.700 1.000
7.442 -0.503 -1.628 0.700 0.700 1.000
7.451 -0.550 -1.631 0.700 0.700 1.000
7.437 -0.594 -1.628 0.700 0.700 1.000
7.453 -0.642 -1.633 0.700 0.700 1.000
7.433 -0.686 -1.629 0.700 0.700 1.000
7.432 -0.732 -1.630 0.700 0.700 1.000
7.438 -0.779 -1.632 0.700 0.700 1.000
7.437 -0.825 -1.633 0.700 0.700 1.000
7.420 -0.869 -1.631 0.700 0.700 1.000
7.414 -0.914 -1.631 0.700 0.700 1.000
7.413 -0.961 -1.632 0.700 0.700 1.000
7.418 -1.008 -1.634 0.700 0.700 1.000
7.408 -1.053 -1.633 0.700 0.700 1.000
7.411 -1.099 -1.635 0.700 0.700 1.000
7.400 -1.144 -1.634 0.700 0.700 1.000
7.387 -1.189 -1.633 0.700 0.700 1.000
7.372 -1.233 -1.631 0.700 0.700 1.000
7.376 -1.280 -1.634 0.700 0.700 1.000
7.366 -1.325 -1.634 0.700 0.700 1.000
7.356 -1.370 -1.633 0.700 0.700 1.000
7.353 -1.416 -1.634 0.700 0.700 1.000
7.346 -1.461 -1.635 0.700 0.700 1.000
7.339 -1.507 -1.635 0.700 0.700 1.000
7.313 -1.548 -1.631 0.700 0.700 1.000
7.313 -1.595 -1.634 0.700 0.700 1.000
7.291 -1.637 -1.631 0.700 0.700 1.000
7.286 -1.683 -1.632 0.700 0.700 1.000
7.276 -1.728 -1.632 0.700 0.700 1.000
7.258 -1.771 -1.631 0.700 0.700 1.000
7.260 -1.819 -1.634 0.700 0.700 1.000
7.248 -1.863 -1.633 0.700 0.700 1.000
7.256 -1.912 -1.638 0.700 0.700 1.000
7.223 -1.951 -1.633 0.700 0.700 1.000
7.210 -1.995 -1.633 0.700 0.700 1.000
7.205 -2.042 -1.634 0.700 0.700 1.000
7.194 -2.086 -1.635 0.700 0.700 1.000
7.181 -2.130 -1.635 0.700 0.700 1.000
7.159 -2.172 -1.633 0.700 0.700 1.000
7.163 -2.221 -1.637 0.700 0.700 1.000
7.158 -2.268 -1.639 0.700 0.700 1.000
7.149 -2.313 -1.640 0.700 0.700 1.000
7.123 -2.353 -1.637 0.700 0.700 1.000
7.116 -2.399 -1.639 0.700 0.700 1.000
7.105 -2.444 -1.640 0.700 0.700 1.000
7.097 -2.490 -1.642 0.700 0.700 1.000
7.086 -2.535 -1.643 0.700 0.700 1.000
7.053 -2.573 -1.639 0.700 0.700 1.000
7.050 -2.620 -1.642 0.700 0.700 1.000
7.032 -2.663 -1.641 0.700 0.700 1.000
7.019 -2.708 -1.642 0.700 0.700 1.000
6.997 -2.749 -1.641 0.700 0.700 1.000
6.993 -2.796 -1.644 0.700 0.700 1.000
6.973 -2.838 -1.643 0.700 0.700 1.000
6.960 -2.883 -1.644 0.700 0.700 1.000
6.936 -2.923 -1.643 0.700 0.700 1.000
6.933 -2.972 -1.646 0.700 0.700 1.000
6.918 -3.016 -1.647 0.700 0.700 1.000
6.896 -3.057 -1.646 0.700 0.700 1.000
6.891 -3.105 -1.650 0.700 0.700 1.000
6.862 -3.143 -1.647 0.700 0.700 1.000
6.829 -3.179 -1.644 0.700 0.700 1.000
6.805 -3.218 -1.643 0.700 0.700 1.000
6.795 -3.265 -1.645 0.700 0.700 1.000
6.761 -3.300 -1.642 0.700 0.700 1.000
6.737 -3.339 -1.641 0.700 0.700 1.000
6.698 -3.371 -1.637 0.700 0.700 1.000
6.644 -3.395 -1.629 0.700 0.700 1.000
6.551 -3.399 -1.611 0.700 0.700 1.000
6.477 -3.411 -1.598 0.700 0.700 1.000
6.421 -3.432 -1.589 0.700 0.700 1.000
6.347 -3.443 -1.576 0.700 0.700 1.000
6.273 -3.453 -1.563 0.700 0.700 1.000
6.216 -3.471 -1.554 0.700 0.700 1.000
6.148 -3.483 -1.542 0.700 0.700 1.000
6.122 -3.518 -1.541 0.700 0.700 1.000
6.078 -3.543 -1.536 0.700 0.700 1.000
6.018 -3.557 -1.526 0.700 0.700 1.000
5.947 -3.565 -1.513 0.700 0.700 1.000
5.887 -3.578 -1.504 0.700 0.700 1.000
5.818 -3.585 -1.492 0.700 0.700 1.000
5.786 -3.614 -1.489 0.700 0.700 1.000
5.734 -3.631 -1.481 0.700 0.700 1.000
5.664 -3.636 -1.469 0.700 0.700 1.000
5.640 -3.669 -1.469 0.700 0.700 1.000
5.560 -3.666 -1.454 0.700 0.700 1.000
5.551 -3.709 -1.457 0.700 0.700 1.000
5.481 -3.711 -1.445 0.700 0.700 1.000
5.590 -3.835 -1.480 0.700 0.700 1.000
5.578 -3.877 -1.483 0.700 0.700 1.000
5.611 -3.952 -1.498 0.700 0.700 1.000
5.615 -4.007 -1.506 0.700 0.700 1.000
5.534 -4.000 -1.490 0.700 0.700 1.000
5.367 -3.930 -1.452 0.700 0.700 1.000
5.554 -4.119 -1.509 0.700 0.700 1.000
5.528 -4.153 -1.509 0.700 0.700 1.000
5.493 -4.179 -1.507 0.700 0.700 1.000
5.462 -4.209 -1.505 0.700 0.700 1.000
5.438 -4.244 -1.506 0.700 0.700 1.000
5.414 -4.278 -1.506 0.700 0.700 1.000
5.373 -4.301 -1.502 0.700 0.700 1.000
5.350 -4.336 -1.503 0.700 0.700 1.000
5.329 -4.373 -1.505 0.700 0.700 1.000
5.290 -4.396 -1.501 0.700 0.700 1.000
5.258 -4.424 -1.500 0.700 0.700 1.000
5.226 -4.452 -1.498 0.700 0.700 1.000
5.178 -4.466 -1.492 0.700 0.700 1.000
4.933 -4.309 -1.430 0.700 0.700 1.000
4.709 -4.164 -1.372 0.700 0.700 1.000
4.658 -4.170 -1.365 0.700 0.700 1.000
4.599 -4.168 -1.355 0.700 0.700 1.000
4.550 -4.175 -1.348 0.700 0.700 1.000
4.492 -4.172 -1.338 0.700 0.700 1.000
4.447 -4.182 -1.332 0.700 0.700 1.000
4.399 -4.188 -1.326 0.700 0.700 1.000
4.356 -4.199 -1.321 0.700 0.700 1.000
4.325 -4.220 -1.319 0.700 0.700 1.000
4.297 -4.245 -1.318 0.700 0.700 1.000
4.265 -4.265 -1.316 0.700 0.700 1.000
4.231 -4.283 -1.314 0.700 0.700 1.000
4.193 -4.297 -1.310 0.700 0.700 1.000
4.137 -4.293 -1.301 0.700 0.700 1.000
4.071 -4.276 -1.289 0.700 0.700 1.000
3.999 -4.252 -1.274 0.700 0.700 1.000
3.944 -4.245 -1.265 0.700 0.700 1.000
3.892 -4.242 -1.257 0.700 0.700 1.000
3.850 -4.247 -1.251 0.700 0.700 1.000
3.801 -4.246 -1.244 0.700 0.700 1.000
4.169 -5.144 -1.445 0.700 0.700 1.000
4.148 -5.183 -1.449 0.700 0.700 1.000
4.097 -5.317 -1.465 0.700 0.700 1.000
4.060 -5.336 -1.464 0.700 0.700 1.000
4.021 -5.353 -1.461 0.700 0.700 1.000
3.988 -5.377 -1.461 0.700 0.700 1.000
3.953 -5.398 -1.460 0.700 0.700 1.000
3.922 -5.426 -1.461 0.700 0.700 1.000
3.889 -5.450 -1.461 0.700 0.700 1.000
3.847 -5.462 -1.458 0.700 0.700 1.000
3.815 -5.488 -1.459 0.700 0.700 1.000
3.779 -5.508 -1.458 0.700 0.700 1.000
3.744 -5.529 -1.457 0.700 0.700 1.000
3.708 -5.549 -1.457 0.700 0.700 1.000
3.671 -5.568 -1.456 0.700 0.700 1.000
3.630 -5.579 -1.453 0.700 0.700 1.000
3.598 -5.605 -1.454 0.700 0.700 1.000
3.564 -5.628 -1.454 0.700 0.700 1.000
3.524 -5.642 -1.452 0.700 0.700 1.000
3.493 -5.668 -1.453 0.700 0.700 1.000
3.458 -5.690 -1.453 0.700 0.700 1.000
3.421 -5.708 -1.452 0.700 0.700 1.000
3.384 -5.725 -1.451 0.700 0.700 1.000
3.344 -5.737 -1.449 0.700 0.700 1.000
3.305 -5.752 -1.448 0.700 0.700 1.000
3.273 -5.778 -1.449 0.700 0.700 1.000
3.240 -5.801 -1.450 0.700 0.700 1.000
3.192 -5.800 -1.445 0.700 0.700 1.000
3.162 -5.829 -1.447 0.700 0.700 1.000
3.123 -5.842 -1.446 0.700 0.700 1.000
3.091 -5.870 -1.448 0.700 0.700 1.000
3.055 -5.887 -1.448 0.700 0.700 1.000
3.019 -5.907 -1.448 0.700 0.700 1.000
2.980 -5.919 -1.446 0.700 0.700 1.000
2.942 -5.936 -1.446 0.700 0.700 1.000
2.910 -5.962 -1.448 0.700 0.700 1.000
2.872 -5.978 -1.448 0.700 0.700 1.000
2.832 -5.989 -1.446 0.700 0.700 1.000
2.796 -6.006 -1.446 0.700 0.700 1.000
2.759 -6.023 -1.446 0.700 0.700 1.000
2.720 -6.035 -1.445 0.700 0.700 1.000
2.682 -6.051 -1.445 0.700 0.700 1.000
2.636 -6.046 -1.440 0.700 0.700 1.000
2.605 -6.076 -1.443 0.700 0.700 1.000
2.564 -6.085 -1.441 0.700 0.700 1.000
2.526 -6.097 -1.440 0.700 0.700 1.000
2.486 -6.107 -1.439 0.700 0.700 1.000
2.454 -6.137 -1.443 0.700 0.700 1.000
2.416 -6.150 -1.442 0.700 0.700 1.000
2.380 -6.170 -1.443 0.700 0.700 1.000
2.337 -6.172 -1.440 0.700 0.700 1.000
2.299 -6.186 -1.440 0.700 0.700 1.000
2.265 -6.211 -1.443 0.700 0.700 1.000
2.223 -6.213 -1.440 0.700 0.700 1.000
2.186 -6.229 -1.441 0.700 0.700 1.000
2.149 -6.246 -1.442 0.700 0.700 1.000
2.113 -6.266 -1.443 0.700 0.700 1.000
2.074 -6.277 -1.443 0.700 0.700 1.000
2.035 -6.290 -1.443 0.700 0.700 1.000
1.997 -6.302 -1.443 0.700 0.700 1.000
1.956 -6.308 -1.442 0.700 0.700 1.000
1.919 -6.326 -1.443 0.700 0.700 1.000
1.882 -6.344 -1.444 0.700 0.700 1.000
1.843 -6.354 -1.444 0.700 0.700 1.000
1.802 -6.361 -1.443 0.700 0.700 1.000
1.763 -6.371 -1.443 0.700 0.700 1.000
1.726 -6.388 -1.444 0.700 0.700 1.000
1.689 -6.408 -1.446 0.700 0.700 1.000
1.647 -6.407 -1.444 0.700 0.700 1.000
