15.842 -1.364 -1.724 0.700 0.700 1.000
15.798 -1.458 -1.720 0.700 0.700 1.000
15.770 -1.553 -1.718 0.700 0.700 1.000
15.739 -1.648 -1.716 0.700 0.700 1.000
15.689 -1.740 -1.711 0.700 0.700 1.000
15.654 -1.833 -1.709 0.700 0.700 1.000
15.632 -1.928 -1.708 0.700 0.700 1.000
15.611 -2.023 -1.707 0.700 0.700 1.000
15.592 -2.118 -1.706 0.700 0.700 1.000
15.565 -2.211 -1.704 0.700 0.700 1.000
15.514 -2.301 -1.700 0.700 0.700 1.000
15.440 -2.387 -1.694 0.700 0.700 1.000
15.355 -2.471 -1.686 0.700 0.700 1.000
15.299 -2.558 -1.682 0.700 0.700 1.000
15.233 -2.643 -1.676 0.700 0.700 1.000
15.170 -2.728 -1.671 0.700 0.700 1.000
15.108 -2.813 -1.666 0.700 0.700 1.000
15.052 -2.898 -1.662 0.700 0.700 1.000
14.990 -2.982 -1.657 0.700 0.700 1.000
14.943 -3.068 -1.654 0.700 0.700 1.000
14.902 -3.155 -1.651 0.700 0.700 1.000
14.838 -3.236 -1.646 0.700 0.700 1.000
14.777 -3.318 -1.642 0.700 0.700 1.000
14.748 -3.407 -1.641 0.700 0.700 1.000
14.720 -3.496 -1.640 0.700 0.700 1.000
14.729 -3.594 -1.644 0.700 0.700 1.000
14.762 -3.698 -1.650 0.700 0.700 1.000
14.527 -3.734 -1.626 0.700 0.700 1.000
14.335 -3.778 -1.607 0.700 0.700 1.000
9.573 -2.586 -1.075 0.700 0.700 1.000
9.333 -2.583 -1.050 0.700 0.700 1.000
9.093 -2.577 -1.025 0.700 0.700 1.000
8.495 -2.464 -0.959 0.700 0.700 1.000
8.274 -2.455 -0.936 0.700 0.700 1.000
7.868 -2.387 -0.891 0.700 0.700 1.000
7.899 -2.449 -0.897 0.700 0.700 1.000
9.756 -3.091 -1.110 0.700 0.700 1.000
7.867 -2.545 -0.896 0.700 0.700 1.000
7.866 -2.599 -0.898 0.700 0.700 1.000
7.865 -2.652 -0.900 0.700 0.700 1.000
7.839 -2.697 -0.899 0.700 0.700 1.000
7.823 -2.745 -0.899 0.700 0.700 1.000
7.827 -2.800 -0.901 0.700 0.700 1.000
7.818 -2.852 -0.902 0.700 0.700 1.000
7.814 -2.904 -0.904 0.700 0.700 1.000
7.812 -2.958 -0.906 0.700 0.700 1.000
7.805 -3.011 -0.907 0.700 0.700 1.000
7.794 -3.061 -0.908 0.700 0.700 1.000
7.779 -3.111 -0.908 0.700 0.700 1.000
7.782 -3.167 -0.911 0.700 0.700 1.000
7.771 -3.219 -0.912 0.700 0.700 1.000
7.759 -3.270 -0.913 0.700 0.700 1.000
7.754 -3.324 -0.915 0.700 0.700 1.000
7.760 -3.383 -0.918 0.700 0.700 1.000
7.759 -3.439 -0.920 0.700 0.700 1.000
7.745 -3.490 -0.921 0.700 0.700 1.000
7.748 -3.549 -0.924 0.700 0.700 1.000
7.788 -3.625 -0.931 0.700 0.700 1.000
8.010 -3.788 -0.961 0.700 0.700 1.000
8.499 -4.084 -1.022 0.700 0.700 1.000
8.365 -4.083 -1.009 0.700 0.700 1.000
8.220 -4.075 -0.995 0.700 0.700 1.000
8.083 -4.069 -0.981 0.700 0.700 1.000
7.968 -4.072 -0.970 0.700 0.700 1.000
7.860 -4.078 -0.960 0.700 0.700 1.000
7.757 -4.085 -0.950 0.700 0.700 1.000
7.639 -4.083 -0.939 0.700 0.700 1.000
7.477 -4.056 -0.922 0.700 0.700 1.000
7.369 -4.056 -0.912 0.700 0.700 1.000
7.278 -4.064 -0.904 0.700 0.700 1.000
7.166 -4.060 -0.893 0.700 0.700 1.000
7.071 -4.063 -0.884 0.700 0.700 1.000
6.968 -4.061 -0.874 0.700 0.700 1.000
6.858 -4.053 -0.864 0.700 0.700 1.000
6.787 -4.068 -0.858 0.700 0.700 1.000
6.662 -4.049 -0.845 0.700 0.700 1.000
6.572 -4.049 -0.837 0.700 0.700 1.000
6.455 -4.032 -0.825 0.700 0.700 1.000
6.378 -4.039 -0.818 0.700 0.700 1.000
6.263 -4.020 -0.807 0.700 0.700 1.000
6.171 -4.015 -0.798 0.700 0.700 1.000
6.114 -4.031 -0.794 0.700 0.700 1.000
6.031 -4.030 -0.786 0.700 0.700 1.000
5.958 -4.034 -0.780 0.700 0.700 1.000
5.863 -4.023 -0.771 0.700 0.700 1.000
5.755 -4.001 -0.760 0.700 0.700 1.000
5.720 -4.029 -0.759 0.700 0.700 1.000
5.647 -4.029 -0.752 0.700 0.700 1.000
5.582 -4.035 -0.747 0.700 0.700 1.000
5.469 -4.005 -0.735 0.700 0.700 1.000
5.399 -4.004 -0.729 0.700 0.700 1.000
5.322 -3.998 -0.722 0.700 0.700 1.000
5.271 -4.010 -0.718 0.700 0.700 1.000
5.191 -4.000 -0.710 0.700 0.700 1.000
5.140 -4.011 -0.707 0.700 0.700 1.000
5.037 -3.981 -0.696 0.700 0.700 1.000
4.978 -3.984 -0.691 0.700 0.700 1.000
4.927 -3.993 -0.688 0.700 0.700 1.000
4.837 -3.969 -0.678 0.700 0.700 1.000
4.765 -3.960 -0.672 0.700 0.700 1.000
4.701 -3.956 -0.666 0.700 0.700 1.000
4.647 -3.959 -0.662 0.700 0.700 1.000
4.595 -3.964 -0.658 0.700 0.700 1.000
4.532 -3.958 -0.652 0.700 0.700 1.000
4.493 -3.973 -0.650 0.700 0.700 1.000
4.447 -3.981 -0.647 0.700 0.700 1.000
4.417 -4.004 -0.646 0.700 0.700 1.000
4.349 -3.990 -0.640 0.700 0.700 1.000
4.277 -3.973 -0.633 0.700 0.700 1.000
4.231 -3.979 -0.630 0.700 0.700 1.000
4.179 -3.979 -0.626 0.700 0.700 1.000
4.128 -3.978 -0.622 0.700 0.700 1.000
4.067 -3.969 -0.616 0.700 0.700 1.000
4.028 -3.979 -0.614 0.700 0.700 1.000
3.972 -3.972 -0.609 0.700 0.700 1.000
3.928 -3.976 -0.606 0.700 0.700 1.000
3.862 -3.958 -0.599 0.700 0.700 1.000
3.830 -3.974 -0.598 0.700 0.700 1.000
3.770 -3.960 -0.593 0.700 0.700 1.000
3.738 -3.975 -0.592 0.700 0.700 1.000
3.681 -3.963 -0.586 0.700 0.700 1.000
3.641 -3.968 -0.584 0.700 0.700 1.000
3.604 -3.976 -0.582 0.700 0.700 1.000
3.535 -3.949 -0.575 0.700 0.700 1.000
3.502 -3.961 -0.573 0.700 0.700 1.000
3.457 -3.958 -0.570 0.700 0.700 1.000
3.415 -3.959 -0.567 0.700 0.700 1.000
3.366 -3.951 -0.563 0.700 0.700 1.000
3.322 -3.949 -0.559 0.700 0.700 1.000
3.273 -3.938 -0.555 0.700 0.700 1.000
3.234 -3.940 -0.553 0.700 0.700 1.000
3.195 -3.942 -0.550 0.700 0.700 1.000
3.150 -3.936 -0.547 0.700 0.700 1.000
3.114 -3.940 -0.544 0.700 0.700 1.000
3.078 -3.945 -0.542 0.700 0.700 1.000
3.037 -3.942 -0.539 0.700 0.700 1.000
2.984 -3.922 -0.534 0.700 0.700 1.000
2.954 -3.932 -0.533 0.700 0.700 1.000
2.915 -3.930 -0.530 0.700 0.700 1.000
2.878 -3.930 -0.528 0.700 0.700 1.000
2.841 -3.930 -0.526 0.700 0.700 1.000
2.805 -3.931 -0.524 0.700 0.700 1.000
2.755 -3.912 -0.519 0.700 0.700 1.000
2.718 -3.909 -0.516 0.700 0.700 1.000
2.684 -3.911 -0.514 0.700 0.700 1.000
2.662 -3.931 -0.515 0.700 0.700 1.000
2.612 -3.910 -0.510 0.700 0.700 1.000
2.575 -3.905 -0.507 0.700 0.700 1.000
2.545 -3.911 -0.506 0.700 0.700 1.000
2.510 -3.910 -0.504 0.700 0.700 1.000
2.472 -3.903 -0.501 0.700 0.700 1.000
2.443 -3.910 -0.500 0.700 0.700 1.000
2.404 -3.901 -0.497 0.700 0.700 1.000
2.380 -3.916 -0.497 0.700 0.700 1.000
2.350 -3.920 -0.496 0.700 0.700 1.000
2.311 -3.910 -0.492 0.700 0.700 1.000
2.274 -3.901 -0.490 0.700 0.700 1.000
2.254 -3.922 -0.490 0.700 0.700 1.000
2.217 -3.913 -0.488 0.700 0.700 1.000
2.188 -3.918 -0.487 0.700 0.700 1.000
2.136 -3.881 -0.480 0.700 0.700 1.000
2.118 -3.905 -0.482 0.700 0.700 1.000
2.085 -3.902 -0.480 0.700 0.700 1.000
2.060 -3.912 -0.479 0.700 0.700 1.000
9.519 -23.387 -2.737 0.700 0.700 1.000
9.276 -23.195 -2.708 0.700 0.700 1.000
3.446 -8.773 -1.022 0.700 0.700 1.000
3.340 -8.658 -1.006 0.700 0.700 1.000
3.316 -8.755 -1.015 0.700 0.700 1.000
8.695 -23.392 -2.706 0.700 0.700 1.000
8.536 -23.402 -2.701 0.700 0.700 1.000
8.361 -23.367 -2.691 0.700 0.700 1.000
8.309 -23.679 -2.721 0.700 0.700 1.000
2.989 -8.689 -0.996 0.700 0.700 1.000
2.926 -8.677 -0.993 0.700 0.700 1.000
2.872 -8.694 -0.993 0.700 0.700 1.000
2.832 -8.752 -0.997 0.700 0.700 1.000
7.712 -24.343 -2.768 0.700 0.700 1.000
7.778 -25.084 -2.847 0.700 0.700 1.000
7.698 -25.376 -2.875 0.700 0.700 1.000
7.510 -25.315 -2.863 0.700 0.700 1.000
2.509 -8.651 -0.977 0.700 0.700 1.000
2.466 -8.703 -0.981 0.700 0.700 1.000
2.413 -8.718 -0.981 0.700 0.700 1.000
2.373 -8.785 -0.987 0.700 0.700 1.000
9.710 -36.842 -4.131 0.700 0.700 1.000
9.515 -37.020 -4.144 0.700 0.700 1.000
9.489 -37.882 -4.234 0.700 0.700 1.000
9.321 -38.204 -4.263 0.700 0.700 1.000
9.133 -38.456 -4.285 0.700 0.700 1.000
8.945 -38.719 -4.308 0.700 0.700 1.000
8.741 -38.924 -4.325 0.700 0.700 1.000
8.547 -39.185 -4.348 0.700 0.700 1.000
8.355 -39.466 -4.374 0.700 0.700 1.000
8.151 -39.702 -4.394 0.700 0.700 1.000
6.111 -30.720 -3.396 0.700 0.700 1.000
5.914 -30.716 -3.391 0.700 0.700 1.000
0.589 -4.547 -0.497 0.700 0.700 1.000
0.545 -4.418 -0.483 0.700 0.700 1.000
-1.142 -4.444 -0.497 0.700 0.700 1.000
-1.507 -4.211 -0.485 0.700 0.700 1.000
-1.568 -4.299 -0.496 0.700 0.700 1.000
-1.587 -4.269 -0.494 0.700 0.700 1.000
-1.564 -4.129 -0.479 0.700 0.700 1.000
-1.601 -4.151 -0.482 0.700 0.700 1.000
-1.652 -4.206 -0.490 0.700 0.700 1.000
-1.666 -4.166 -0.486 0.700 0.700 1.000
-1.929 -4.078 -0.489 0.700 0.700 1.000
-2.044 -4.254 -0.512 0.700 0.700 1.000
-2.028 -3.967 -0.483 0.700 0.700 1.000
-2.074 -3.997 -0.488 0.700 0.700 1.000
-2.107 -4.002 -0.490 0.700 0.700 1.000
-2.126 -3.978 -0.489 0.700 0.700 1.000
-2.151 -3.965 -0.489 0.700 0.700 1.000
-2.176 -3.954 -0.489 0.700 0.700 1.000
-2.169 -3.884 -0.482 0.700 0.700 1.000
-2.244 -3.961 -0.494 0.700 0.700 1.000
-2.247 -3.911 -0.489 0.700 0.700 1.000
-2.266 -3.888 -0.488 0.700 0.700 1.000
-2.286 -3.867 -0.487 0.700 0.700 1.000
-2.301 -3.839 -0.485 0.700 0.700 1.000
-2.403 -3.954 -0.502 0.700 0.700 1.000
-2.435 -3.953 -0.503 0.700 0.700 1.000
-2.471 -3.956 -0.506 0.700 0.700 1.000
-2.477 -3.912 -0.502 0.700 0.700 1.000
-2.531 -3.943 -0.508 0.700 0.700 1.000
-2.570 -3.950 -0.511 0.700 0.700 1.000
-2.591 -3.930 -0.510 0.700 0.700 1.000
-2.629 -3.934 -0.513 0.700 0.700 1.000
-2.664 -3.934 -0.515 0.700 0.700 1.000
-2.665 -3.884 -0.511 0.700 0.700 1.000
-2.699 -3.882 -0.513 0.700 0.700 1.000
-2.750 -3.904 -0.518 0.700 0.700 1.000
-2.934 -4.112 -0.548 0.700 0.700 1.000
-3.226 -4.349 -0.587 0.700 0.700 1.000
-6.399 -8.518 -1.155 0.700 0.700 1.000
-2.920 -3.838 -0.523 0.700 0.700 1.000
-2.963 -3.846 -0.526 0.700 0.700 1.000
-3.021 -3.871 -0.532 0.700 0.700 1.000
-3.262 -4.127 -0.570 0.700 0.700 1.000
-3.235 -4.042 -0.561 0.700 0.700 1.000
-3.446 -4.251 -0.593 0.700 0.700 1.000
-3.123 -3.805 -0.534 0.700 0.700 1.000
-3.186 -3.833 -0.540 0.700 0.700 1.000
-3.179 -3.778 -0.535 0.700 0.700 1.000
-3.222 -3.781 -0.539 0.700 0.700 1.000
-3.242 -3.759 -0.538 0.700 0.700 1.000
-4.104 -4.699 -0.676 0.700 0.700 1.000
-3.369 -3.810 -0.551 0.700 0.700 1.000
-4.225 -4.719 -0.687 0.700 0.700 1.000
-4.242 -4.681 -0.685 0.700 0.700 1.000
-4.244 -4.625 -0.681 0.700 0.700 1.000
-4.298 -4.627 -0.685 0.700 0.700 1.000
-4.156 -4.420 -0.658 0.700 0.700 1.000
-4.175 -4.385 -0.656 0.700 0.700 1.000
-4.234 -4.393 -0.661 0.700 0.700 1.000
-4.255 -4.361 -0.661 0.700 0.700 1.000
-4.296 -4.349 -0.663 0.700 0.700 1.000
-4.360 -4.360 -0.668 0.700 0.700 1.000
-4.364 -4.311 -0.665 0.700 0.700 1.000
-4.423 -4.316 -0.670 0.700 0.700 1.000
-4.480 -4.318 -0.675 0.700 0.700 1.000
-4.712 -4.486 -0.705 0.700 0.700 1.000
-4.492 -4.225 -0.669 0.700 0.700 1.000
-4.849 -4.505 -0.718 0.700 0.700 1.000
-4.826 -4.428 -0.710 0.700 0.700 1.000
-4.972 -4.506 -0.728 0.700 0.700 1.000
-4.852 -4.343 -0.706 0.700 0.700 1.000
-4.945 -4.373 -0.716 0.700 0.700 1.000
-5.006 -4.372 -0.721 0.700 0.700 1.000
-5.012 -4.323 -0.718 0.700 0.700 1.000
-5.024 -4.280 -0.716 0.700 0.700 1.000
-5.062 -4.259 -0.717 0.700 0.700 1.000
-4.904 -4.076 -0.691 0.700 0.700 1.000
-4.965 -4.074 -0.696 0.700 0.700 1.000
-5.788 -4.691 -0.808 0.700 0.700 1.000
-5.506 -4.407 -0.765 0.700 0.700 1.000
-5.221 -4.127 -0.722 0.700 0.700 1.000
-5.129 -4.002 -0.705 0.700 0.700 1.000
-5.080 -3.915 -0.695 0.700 0.700 1.000
-5.118 -3.894 -0.697 0.700 0.700 1.000
-5.170 -3.884 -0.701 0.700 0.700 1.000
-5.354 -3.971 -0.723 0.700 0.700 1.000
-5.354 -3.920 -0.719 0.700 0.700 1.000
-5.461 -3.947 -0.731 0.700 0.700 1.000
-5.495 -3.921 -0.732 0.700 0.700 1.000
-5.723 -4.031 -0.759 0.700 0.700 1.000
-5.764 -4.007 -0.761 0.700 0.700 1.000
-5.495 -3.770 -0.722 0.700 0.700 1.000
-5.641 -3.819 -0.739 0.700 0.700 1.000
-5.919 -3.955 -0.772 0.700 0.700 1.000
-6.019 -3.969 -0.782 0.700 0.700 1.000
-6.296 -4.096 -0.814 0.700 0.700 1.000
-6.221 -3.993 -0.801 0.700 0.700 1.000
-6.155 -3.897 -0.790 0.700 0.700 1.000
-6.406 -4.001 -0.819 0.700 0.700 1.000
-6.472 -3.988 -0.824 0.700 0.700 1.000
-6.568 -3.992 -0.833 0.700 0.700 1.000
-6.502 -3.897 -0.822 0.700 0.700 1.000
-7.051 -4.168 -0.888 0.700 0.700 1.000
-7.144 -4.163 -0.896 0.700 0.700 1.000
-7.296 -4.193 -0.912 0.700 0.700 1.000
-7.196 -4.076 -0.897 0.700 0.700 1.000
-7.184 -4.012 -0.892 0.700 0.700 1.000
-7.502 -4.129 -0.928 0.700 0.700 1.000
-7.411 -4.020 -0.914 0.700 0.700 1.000
-7.436 -3.974 -0.914 0.700 0.700 1.000
-7.595 -4.000 -0.931 0.700 0.700 1.000
-7.592 -3.939 -0.927 0.700 0.700 1.000
-8.037 -4.107 -0.978 0.700 0.700 1.000
-8.274 -4.165 -1.004 0.700 0.700 1.000
-8.333 -4.130 -1.008 0.700 0.700 1.000
-8.361 -4.081 -1.009 0.700 0.700 1.000
-8.326 -4.000 -1.001 0.700 0.700 1.000
-8.540 -4.039 -1.024 0.700 0.700 1.000
-8.571 -3.989 -1.025 0.700 0.700 1.000
-8.681 -3.976 -1.035 0.700 0.700 1.000
-8.747 -3.942 -1.040 0.700 0.700 1.000
-8.785 -3.894 -1.042 0.700 0.700 1.000
-9.025 -3.934 -1.067 0.700 0.700 1.000
-9.125 -3.912 -1.076 0.700 0.700 1.000
-9.224 -3.887 -1.085 0.700 0.700 1.000
-9.336 -3.867 -1.096 0.700 0.700 1.000
-9.360 -3.810 -1.096 0.700 0.700 1.000
-9.532 -3.812 -1.113 0.700 0.700 1.000
-9.602 -3.772 -1.118 0.700 0.700 1.000
-9.864 -3.805 -1.146 0.700 0.700 1.000
-10.151 -3.844 -1.177 0.700 0.700 1.000
-10.312 -3.833 -1.193 0.700 0.700 1.000
-10.366 -3.781 -1.196 0.700 0.700 1.000
-10.602 -3.794 -1.221 0.700 0.700 1.000
-10.865 -3.812 -1.248 0.700 0.700 1.000
-11.065 -3.807 -1.269 0.700 0.700 1.000
-11.507 -3.880 -1.316 0.700 0.700 1.000
-11.767 -3.887 -1.344 0.700 0.700 1.000
-11.969 -3.873 -1.364 0.700 0.700 1.000
-12.173 -3.856 -1.384 0.700 0.700 1.000
-12.388 -3.841 -1.406 0.700 0.700 1.000
-12.607 -3.824 -1.428 0.700 0.700 1.000
-12.838 -3.809 -1.452 0.700 0.700 1.000
-13.237 -3.839 -1.494 0.700 0.700 1.000
-13.311 -3.772 -1.500 0.700 0.700 1.000
-13.324 -3.687 -1.499 0.700 0.700 1.000
-13.467 -3.638 -1.512 0.700 0.700 1.000
-13.893 -3.662 -1.558 0.700 0.700 1.000
-14.052 -3.612 -1.573 0.700 0.700 1.000
-14.176 -3.551 -1.584 0.700 0.700 1.000
-14.282 -3.484 -1.594 0.700 0.700 1.000
-14.374 -3.414 -1.602 0.700 0.700 1.000
-14.480 -3.345 -1.611 0.700 0.700 1.000
-14.654 -3.291 -1.628 0.700 0.700 1.000
-14.777 -3.223 -1.640 0.700 0.700 1.000
-14.832 -3.140 -1.644 0.700 0.700 1.000
-14.953 -3.070 -1.655 0.700 0.700 1.000
-14.993 -2.982 -1.657 0.700 0.700 1.000
-15.014 -2.891 -1.658 0.700 0.700 1.000
-15.055 -2.803 -1.660 0.700 0.700 1.000
-15.099 -2.715 -1.663 0.700 0.700 1.000
-15.124 -2.624 -1.664 0.700 0.700 1.000
-15.179 -2.538 -1.668 0.700 0.700 1.000
-15.237 -2.452 -1.673 0.700 0.700 1.000
-15.281 -2.363 -1.676 0.700 0.700 1.000
-15.302 -2.270 -1.677 0.700 0.700 1.000
-15.346 -2.180 -1.680 0.700 0.700 1.000
-15.364 -2.087 -1.681 0.700 0.700 1.000
-15.380 -1.993 -1.681 0.700 0.700 1.000
-15.422 -1.902 -1.685 0.700 0.700 1.000
-15.433 -1.807 -1.685 0.700 0.700 1.000
-15.442 -1.712 -1.684 0.700 0.700 1.000
-15.458 -1.618 -1.685 0.700 0.700 1.000
-15.477 -1.524 -1.686 0.700 0.700 1.000
-15.498 -1.430 -1.687 0.700 0.700 1.000
-15.518 -1.336 -1.689 0.700 0.700 1.000
-15.540 -1.242 -1.690 0.700 0.700 1.000
-15.565 -1.148 -1.692 0.700 0.700 1.000
-15.602 -1.055 -1.695 0.700 0.700 1.000
-15.650 -0.961 -1.700 0.700 0.700 1.000
-15.687 -0.867 -1.703 0.700 0.700 1.000
-15.722 -0.772 -1.707 0.700 0.700 1.000
-15.780 -0.678 -1.712 0.700 0.700 1.000
-15.826 -0.583 -1.717 0.700 0.700 1.000
-15.841 -0.486 -1.718 0.700 0.700 1.000
-15.856 -0.389 -1.719 0.700 0.700 1.000
-15.892 -0.293 -1.723 0.700 0.700 1.000
-15.899 -0.195 -1.724 0.700 0.700 1.000
-15.914 -0.098 -1.725 0.700 0.700 1.000
-15.251 0.000 -1.771 0.700 0.700 1.000
-15.263 0.094 -1.773 0.700 0.700 1.000
-15.254 0.187 -1.772 0.700 0.700 1.000
-15.274 0.281 -1.774 0.700 0.700 1.000
-15.280 0.375 -1.775 0.700 0.700 1.000
-15.273 0.469 -1.775 0.700 0.700 1.000
-15.285 0.563 -1.776 0.700 0.700 1.000
-15.306 0.658 -1.779 0.700 0.700 1.000
-15.324 0.753 -1.782 0.700 0.700 1.000
-15.343 0.848 -1.785 0.700 0.700 1.000
-15.308 0.940 -1.781 0.700 0.700 1.000
-15.301 1.034 -1.781 0.700 0.700 1.000
-15.285 1.127 -1.780 0.700 0.700 1.000
-15.270 1.221 -1.779 0.700 0.700 1.000
-15.254 1.314 -1.778 0.700 0.700 1.000
-15.251 1.408 -1.779 0.700 0.700 1.000
-15.251 1.502 -1.780 0.700 0.700 1.000
-15.267 1.598 -1.783 0.700 0.700 1.000
-15.292 1.696 -1.787 0.700 0.700 1.000
-15.298 1.792 -1.789 0.700 0.700 1.000
-15.320 1.890 -1.793 0.700 0.700 1.000
-15.322 1.985 -1.794 0.700 0.700 1.000
-15.345 2.084 -1.799 0.700 0.700 1.000
-15.333 2.178 -1.799 0.700 0.700 1.000
-15.295 2.269 -1.796 0.700 0.700 1.000
-15.298 2.365 -1.798 0.700 0.700 1.000
-15.261 2.456 -1.795 0.700 0.700 1.000
-15.258 2.551 -1.797 0.700 0.700 1.000
-15.238 2.644 -1.796 0.700 0.700 1.000
-15.211 2.736 -1.795 0.700 0.700 1.000
-15.206 2.831 -1.796 0.700 0.700 1.000
-15.183 2.923 -1.796 0.700 0.700 1.000
-15.147 3.013 -1.794 0.700 0.700 1.000
-15.078 3.095 -1.788 0.700 0.700 1.000
-14.909 3.156 -1.770 0.700 0.700 1.000
-14.819 3.232 -1.762 0.700 0.700 1.000
-14.724 3.306 -1.753 0.700 0.700 1.000
-14.703 3.397 -1.753 0.700 0.700 1.000
-14.676 3.485 -1.752 0.700 0.700 1.000
-14.639 3.572 -1.750 0.700 0.700 1.000
-10.432 2.613 -1.249 0.700 0.700 1.000
-10.276 2.641 -1.232 0.700 0.700 1.000
-9.963 2.626 -1.197 0.700 0.700 1.000
-9.725 2.627 -1.170 0.700 0.700 1.000
-8.358 2.592 -1.016 0.700 0.700 1.000
-8.344 2.643 -1.017 0.700 0.700 1.000
-8.405 2.720 -1.026 0.700 0.700 1.000
-8.129 2.686 -0.994 0.700 0.700 1.000
-7.772 2.621 -0.953 0.700 0.700 1.000
-7.726 2.658 -0.949 0.700 0.700 1.000
-7.610 2.670 -0.937 0.700 0.700 1.000
-7.519 2.690 -0.927 0.700 0.700 1.000
-7.422 2.707 -0.918 0.700 0.700 1.000
-7.456 2.771 -0.924 0.700 0.700 1.000
-7.456 2.824 -0.926 0.700 0.700 1.000
-7.497 2.892 -0.933 0.700 0.700 1.000
-7.492 2.943 -0.935 0.700 0.700 1.000
-7.431 2.972 -0.930 0.700 0.700 1.000
-7.492 3.050 -0.940 0.700 0.700 1.000
-7.483 3.100 -0.941 0.700 0.700 1.000
-7.475 3.150 -0.942 0.700 0.700 1.000
-7.491 3.211 -0.947 0.700 0.700 1.000
-7.377 3.216 -0.935 0.700 0.700 1.000
-7.323 3.246 -0.930 0.700 0.700 1.000
-7.342 3.309 -0.935 0.700 0.700 1.000
-7.336 3.360 -0.937 0.700 0.700 1.000
-7.337 3.415 -0.940 0.700 0.700 1.000
-7.343 3.473 -0.943 0.700 0.700 1.000
-7.322 3.518 -0.943 0.700 0.700 1.000
-7.344 3.584 -0.949 0.700 0.700 1.000
-7.331 3.634 -0.950 0.700 0.700 1.000
-7.330 3.690 -0.953 0.700 0.700 1.000
-7.348 3.755 -0.958 0.700 0.700 1.000
-7.490 3.886 -0.980 0.700 0.700 1.000
-7.509 3.955 -0.986 0.700 0.700 1.000
-7.525 4.022 -0.991 0.700 0.700 1.000
-7.519 4.078 -0.994 0.700 0.700 1.000
-7.521 4.140 -0.997 0.700 0.700 1.000
-7.493 4.184 -0.997 0.700 0.700 1.000
-7.489 4.243 -1.000 0.700 0.700 1.000
-8.408 4.832 -1.126 0.700 0.700 1.000
-8.331 4.855 -1.120 0.700 0.700 1.000
-8.215 4.856 -1.108 0.700 0.700 1.000
-8.110 4.861 -1.098 0.700 0.700 1.000
-7.968 4.843 -1.083 0.700 0.700 1.000
-7.871 4.850 -1.074 0.700 0.700 1.000
-7.757 4.846 -1.062 0.700 0.700 1.000
-7.630 4.831 -1.049 0.700 0.700 1.000
-7.543 4.842 -1.041 0.700 0.700 1.000
-7.458 4.852 -1.033 0.700 0.700 1.000
-7.330 4.833 -1.020 0.700 0.700 1.000
-7.252 4.846 -1.013 0.700 0.700 1.000
-7.140 4.835 -1.002 0.700 0.700 1.000
-7.093 4.866 -0.999 0.700 0.700 1.000
-6.940 4.825 -0.982 0.700 0.700 1.000
-6.862 4.833 -0.975 0.700 0.700 1.000
-6.799 4.851 -0.970 0.700 0.700 1.000
-6.729 4.864 -0.964 0.700 0.700 1.000
-6.639 4.861 -0.956 0.700 0.700 1.000
-6.554 4.861 -0.948 0.700 0.700 1.000
-6.485 4.872 -0.942 0.700 0.700 1.000
-6.408 4.875 -0.935 0.700 0.700 1.000
-6.302 4.856 -0.924 0.700 0.700 1.000
-6.222 4.856 -0.917 0.700 0.700 1.000
-6.126 4.842 -0.907 0.700 0.700 1.000
-6.083 4.868 -0.905 0.700 0.700 1.000
-6.011 4.872 -0.899 0.700 0.700 1.000
-5.906 4.847 -0.887 0.700 0.700 1.000
-5.855 4.865 -0.884 0.700 0.700 1.000
-5.771 4.856 -0.876 0.700 0.700 1.000
-5.689 4.846 -0.868 0.700 0.700 1.000
-5.629 4.855 -0.863 0.700 0.700 1.000
-5.549 4.847 -0.856 0.700 0.700 1.000
-5.490 4.854 -0.851 0.700 0.700 1.000
-5.432 4.863 -0.847 0.700 0.700 1.000
-5.343 4.842 -0.838 0.700 0.700 1.000
-5.297 4.860 -0.835 0.700 0.700 1.000
-5.202 4.832 -0.825 0.700 0.700 1.000
-5.152 4.845 -0.821 0.700 0.700 1.000
-5.084 4.841 -0.815 0.700 0.700 1.000
-5.049 4.866 -0.814 0.700 0.700 1.000
-4.988 4.867 -0.809 0.700 0.700 1.000
-4.917 4.857 -0.803 0.700 0.700 1.000
-4.835 4.835 -0.794 0.700 0.700 1.000
-4.801 4.860 -0.793 0.700 0.700 1.000
-4.736 4.854 -0.788 0.700 0.700 1.000
-4.672 4.847 -0.782 0.700 0.700 1.000
-4.614 4.846 -0.777 0.700 0.700 1.000
-4.543 4.831 -0.770 0.700 0.700 1.000
-4.481 4.823 -0.765 0.700 0.700 1.000
-4.430 4.828 -0.761 0.700 0.700 1.000
-4.391 4.845 -0.759 0.700 0.700 1.000
-4.344 4.852 -0.756 0.700 0.700 1.000
-4.290 4.852 -0.752 0.700 0.700 1.000
-4.229 4.842 -0.747 0.700 0.700 1.000
-4.188 4.855 -0.745 0.700 0.700 1.000
-4.132 4.850 -0.740 0.700 0.700 1.000
-4.084 4.854 -0.737 0.700 0.700 1.000
-4.045 4.868 -0.735 0.700 0.700 1.000
-4.008 4.884 -0.734 0.700 0.700 1.000
-3.928 4.846 -0.725 0.700 0.700 1.000
-3.917 4.894 -0.728 0.700 0.700 1.000
-3.871 4.898 -0.725 0.700 0.700 1.000
-3.825 4.901 -0.722 0.700 0.700 1.000
-3.764 4.885 -0.716 0.700 0.700 1.000
-3.716 4.884 -0.713 0.700 0.700 1.000
-3.658 4.869 -0.707 0.700 0.700 1.000
-3.609 4.866 -0.704 0.700 0.700 1.000
-3.563 4.867 -0.701 0.700 0.700 1.000
-3.519 4.868 -0.698 0.700 0.700 1.000
-3.478 4.874 -0.695 0.700 0.700 1.000
-3.434 4.876 -0.693 0.700 0.700 1.000
-3.392 4.879 -0.690 0.700 0.700 1.000
-3.344 4.874 -0.687 0.700 0.700 1.000
-3.302 4.876 -0.684 0.700 0.700 1.000
-3.260 4.879 -0.681 0.700 0.700 1.000
-3.226 4.893 -0.681 0.700 0.700 1.000
-3.183 4.893 -0.678 0.700 0.700 1.000
-3.144 4.898 -0.676 0.700 0.700 1.000
-2.915 4.603 -0.633 0.700 0.700 1.000
-2.973 4.759 -0.652 0.700 0.700 1.000
-2.867 4.652 -0.635 0.700 0.700 1.000
-2.771 4.559 -0.620 0.700 0.700 1.000
-2.722 4.605 -0.621 0.700 0.700 1.000
-2.744 4.709 -0.633 0.700 0.700 1.000
-2.496 4.884 -0.637 0.700 0.700 1.000
-2.453 4.874 -0.634 0.700 0.700 1.000
-2.335 4.859 -0.626 0.700 0.700 1.000
2.493 4.734 -0.621 0.700 0.700 1.000
2.734 4.691 -0.631 0.700 0.700 1.000
2.792 4.724 -0.637 0.700 0.700 1.000
2.812 4.692 -0.635 0.700 0.700 1.000
2.823 4.644 -0.631 0.700 0.700 1.000
2.804 4.550 -0.621 0.700 0.700 1.000
2.847 4.558 -0.624 0.700 0.700 1.000
2.897 4.513 -0.623 0.700 0.700 1.000
3.017 4.638 -0.643 0.700 0.700 1.000
2.934 4.449 -0.619 0.700 0.700 1.000
3.069 4.593 -0.642 0.700 0.700 1.000
3.087 4.559 -0.639 0.700 0.700 1.000
3.087 4.499 -0.634 0.700 0.700 1.000
3.111 4.475 -0.633 0.700 0.700 1.000
3.198 4.541 -0.645 0.700 0.700 1.000
3.156 4.423 -0.631 0.700 0.700 1.000
3.195 4.420 -0.633 0.700 0.700 1.000
3.268 4.463 -0.642 0.700 0.700 1.000
3.338 4.501 -0.651 0.700 0.700 1.000
3.343 4.450 -0.646 0.700 0.700 1.000
3.410 4.482 -0.654 0.700 0.700 1.000
3.442 4.467 -0.655 0.700 0.700 1.000
3.490 4.472 -0.659 0.700 0.700 1.000
3.489 4.415 -0.654 0.700 0.700 1.000
3.579 4.472 -0.665 0.700 0.700 1.000
3.611 4.456 -0.666 0.700 0.700 1.000
3.621 4.413 -0.663 0.700 0.700 1.000
3.700 4.453 -0.672 0.700 0.700 1.000
3.743 4.448 -0.675 0.700 0.700 1.000
3.792 4.451 -0.679 0.700 0.700 1.000
3.843 4.455 -0.683 0.700 0.700 1.000
3.866 4.426 -0.683 0.700 0.700 1.000
3.935 4.450 -0.690 0.700 0.700 1.000
3.949 4.411 -0.688 0.700 0.700 1.000
3.988 4.401 -0.690 0.700 0.700 1.000
4.031 4.393 -0.693 0.700 0.700 1.000
4.058 4.369 -0.693 0.700 0.700 1.000
4.147 4.410 -0.703 0.700 0.700 1.000
4.216 4.428 -0.710 0.700 0.700 1.000
4.226 4.384 -0.707 0.700 0.700 1.000
4.235 4.340 -0.704 0.700 0.700 1.000
4.348 4.401 -0.719 0.700 0.700 1.000
4.397 4.397 -0.722 0.700 0.700 1.000
4.504 4.449 -0.735 0.700 0.700 1.000
4.435 4.327 -0.720 0.700 0.700 1.000
4.554 4.390 -0.735 0.700 0.700 1.000
4.590 4.370 -0.736 0.700 0.700 1.000
4.753 4.470 -0.758 0.700 0.700 1.000
4.687 4.354 -0.743 0.700 0.700 1.000
4.788 4.393 -0.755 0.700 0.700 1.000
4.815 4.364 -0.755 0.700 0.700 1.000
4.900 4.386 -0.764 0.700 0.700 1.000
4.965 4.390 -0.770 0.700 0.700 1.000
5.071 4.429 -0.782 0.700 0.700 1.000
5.110 4.408 -0.784 0.700 0.700 1.000
5.132 4.373 -0.783 0.700 0.700 1.000
5.238 4.407 -0.795 0.700 0.700 1.000
5.245 4.358 -0.792 0.700 0.700 1.000
5.289 4.341 -0.795 0.700 0.700 1.000
5.377 4.358 -0.804 0.700 0.700 1.000
5.374 4.301 -0.799 0.700 0.700 1.000
5.426 4.288 -0.803 0.700 0.700 1.000
5.552 4.333 -0.818 0.700 0.700 1.000
5.691 4.386 -0.835 0.700 0.700 1.000
5.821 4.429 -0.850 0.700 0.700 1.000
6.146 4.617 -0.893 0.700 0.700 1.000
6.042 4.481 -0.874 0.700 0.700 1.000
6.076 4.449 -0.875 0.700 0.700 1.000
5.797 4.190 -0.831 0.700 0.700 1.000
5.789 4.130 -0.826 0.700 0.700 1.000
5.790 4.078 -0.823 0.700 0.700 1.000
5.787 4.023 -0.819 0.700 0.700 1.000
5.765 3.955 -0.812 0.700 0.700 1.000
5.741 3.887 -0.805 0.700 0.700 1.000
5.758 3.847 -0.804 0.700 0.700 1.000
5.786 3.815 -0.805 0.700 0.700 1.000
5.846 3.804 -0.810 0.700 0.700 1.000
5.918 3.798 -0.817 0.700 0.700 1.000
6.121 3.876 -0.841 0.700 0.700 1.000
6.311 3.942 -0.864 0.700 0.700 1.000
6.329 3.900 -0.863 0.700 0.700 1.000
6.200 3.768 -0.843 0.700 0.700 1.000
6.422 3.849 -0.870 0.700 0.700 1.000
6.507 3.846 -0.878 0.700 0.700 1.000
6.812 3.970 -0.916 0.700 0.700 1.000
6.903 3.967 -0.925 0.700 0.700 1.000
6.903 3.911 -0.922 0.700 0.700 1.000
6.920 3.864 -0.921 0.700 0.700 1.000
6.995 3.850 -0.927 0.700 0.700 1.000
7.084 3.843 -0.936 0.700 0.700 1.000
7.218 3.858 -0.951 0.700 0.700 1.000
7.317 3.853 -0.960 0.700 0.700 1.000
7.888 4.092 -1.032 0.700 0.700 1.000
7.965 4.071 -1.039 0.700 0.700 1.000
8.111 4.083 -1.055 0.700 0.700 1.000
8.212 4.071 -1.065 0.700 0.700 1.000
8.323 4.062 -1.076 0.700 0.700 1.000
8.453 4.062 -1.089 0.700 0.700 1.000
8.577 4.057 -1.102 0.700 0.700 1.000
8.704 4.052 -1.115 0.700 0.700 1.000
8.857 4.057 -1.131 0.700 0.700 1.000
9.037 4.073 -1.151 0.700 0.700 1.000
9.147 4.055 -1.162 0.700 0.700 1.000
9.311 4.059 -1.180 0.700 0.700 1.000
9.447 4.049 -1.194 0.700 0.700 1.000
9.599 4.045 -1.210 0.700 0.700 1.000
9.743 4.036 -1.225 0.700 0.700 1.000
9.913 4.035 -1.243 0.700 0.700 1.000
10.076 4.029 -1.260 0.700 0.700 1.000
10.330 4.058 -1.289 0.700 0.700 1.000
10.449 4.030 -1.301 0.700 0.700 1.000
10.573 4.004 -1.313 0.700 0.700 1.000
10.561 3.926 -1.309 0.700 0.700 1.000
10.538 3.844 -1.303 0.700 0.700 1.000
10.679 3.821 -1.317 0.700 0.700 1.000
10.846 3.806 -1.335 0.700 0.700 1.000
11.031 3.795 -1.355 0.700 0.700 1.000
11.242 3.791 -1.378 0.700 0.700 1.000
12.143 4.011 -1.485 0.700 0.700 1.000
12.373 4.003 -1.510 0.700 0.700 1.000
12.736 4.035 -1.552 0.700 0.700 1.000
12.960 4.018 -1.576 0.700 0.700 1.000
13.235 4.015 -1.606 0.700 0.700 1.000
13.503 4.006 -1.636 0.700 0.700 1.000
13.801 4.002 -1.669 0.700 0.700 1.000
14.085 3.991 -1.700 0.700 0.700 1.000
14.664 4.058 -1.767 0.700 0.700 1.000
14.482 3.912 -1.742 0.700 0.700 1.000
14.490 3.819 -1.740 0.700 0.700 1.000
14.607 3.754 -1.752 0.700 0.700 1.000
15.372 3.851 -1.841 0.700 0.700 1.000
15.440 3.767 -1.846 0.700 0.700 1.000
15.658 3.719 -1.869 0.700 0.700 1.000
15.686 3.624 -1.870 0.700 0.700 1.000
15.679 3.521 -1.866 0.700 0.700 1.000
15.652 3.414 -1.861 0.700 0.700 1.000
15.647 3.312 -1.858 0.700 0.700 1.000
15.642 3.211 -1.855 0.700 0.700 1.000
15.613 3.106 -1.849 0.700 0.700 1.000
15.612 3.006 -1.847 0.700 0.700 1.000
15.609 2.906 -1.844 0.700 0.700 1.000
15.607 2.807 -1.842 0.700 0.700 1.000
15.602 2.707 -1.839 0.700 0.700 1.000
15.595 2.608 -1.836 0.700 0.700 1.000
15.601 2.510 -1.835 0.700 0.700 1.000
15.578 2.409 -1.831 0.700 0.700 1.000
15.576 2.310 -1.829 0.700 0.700 1.000
15.592 2.215 -1.829 0.700 0.700 1.000
15.594 2.118 -1.828 0.700 0.700 1.000
15.594 2.020 -1.826 0.700 0.700 1.000
15.590 1.923 -1.824 0.700 0.700 1.000
15.580 1.825 -1.822 0.700 0.700 1.000
15.579 1.728 -1.820 0.700 0.700 1.000
15.607 1.634 -1.823 0.700 0.700 1.000
15.682 1.545 -1.830 0.700 0.700 1.000
15.851 1.463 -1.849 0.700 0.700 1.000
15.826 1.363 -1.845 0.700 0.700 1.000
15.787 1.262 -1.839 0.700 0.700 1.000
15.766 1.163 -1.836 0.700 0.700 1.000
15.753 1.065 -1.834 0.700 0.700 1.000
15.711 0.965 -1.828 0.700 0.700 1.000
15.676 0.867 -1.824 0.700 0.700 1.000
15.681 0.770 -1.823 0.700 0.700 1.000
15.668 0.673 -1.821 0.700 0.700 1.000
15.662 0.577 -1.820 0.700 0.700 1.000
15.667 0.481 -1.820 0.700 0.700 1.000
15.665 0.385 -1.820 0.700 0.700 1.000
15.664 0.288 -1.820 0.700 0.700 1.000
15.651 0.192 -1.818 0.700 0.700 1.000
15.644 0.096 -1.817 0.700 0.700 1.000
15.621 -0.000 -1.814 0.700 0.700 1.000
15.582 -0.096 -1.810 0.700 0.700 1.000
15.542 -0.191 -1.805 0.700 0.700 1.000
15.499 -0.285 -1.800 0.700 0.700 1.000
15.435 -0.379 -1.793 0.700 0.700 1.000
15.408 -0.473 -1.790 0.700 0.700 1.000
15.386 -0.567 -1.788 0.700 0.700 1.000
15.336 -0.659 -1.783 0.700 0.700 1.000
15.293 -0.751 -1.778 0.700 0.700 1.000
15.275 -0.844 -1.777 0.700 0.700 1.000
15.220 -0.935 -1.771 0.700 0.700 1.000
15.177 -1.026 -1.767 0.700 0.700 1.000
15.125 -1.116 -1.761 0.700 0.700 1.000
15.048 -1.203 -1.753 0.700 0.700 1.000
14.997 -1.291 -1.748 0.700 0.700 1.000
14.965 -1.381 -1.746 0.700 0.700 1.000
14.923 -1.470 -1.742 0.700 0.700 1.000
14.893 -1.559 -1.739 0.700 0.700 1.000
14.856 -1.647 -1.736 0.700 0.700 1.000
14.830 -1.737 -1.734 0.700 0.700 1.000
14.819 -1.828 -1.734 0.700 0.700 1.000
14.788 -1.916 -1.732 0.700 0.700 1.000
14.762 -2.005 -1.730 0.700 0.700 1.000
14.726 -2.092 -1.728 0.700 0.700 1.000
14.674 -2.177 -1.723 0.700 0.700 1.000
14.641 -2.264 -1.721 0.700 0.700 1.000
14.616 -2.352 -1.719 0.700 0.700 1.000
14.558 -2.434 -1.714 0.700 0.700 1.000
14.510 -2.518 -1.710 0.700 0.700 1.000
14.446 -2.598 -1.705 0.700 0.700 1.000
14.423 -2.685 -1.704 0.700 0.700 1.000
14.391 -2.771 -1.702 0.700 0.700 1.000
14.336 -2.852 -1.698 0.700 0.700 1.000
14.291 -2.934 -1.694 0.700 0.700 1.000
14.240 -3.015 -1.691 0.700 0.700 1.000
14.202 -3.098 -1.688 0.700 0.700 1.000
14.162 -3.180 -1.686 0.700 0.700 1.000
14.107 -3.259 -1.682 0.700 0.700 1.000
14.053 -3.337 -1.678 0.700 0.700 1.000
13.987 -3.412 -1.672 0.700 0.700 1.000
13.942 -3.492 -1.669 0.700 0.700 1.000
14.001 -3.599 -1.679 0.700 0.700 1.000
13.950 -3.677 -1.676 0.700 0.700 1.000
9.579 -2.588 -1.153 0.700 0.700 1.000
9.309 -2.576 -1.122 0.700 0.700 1.000
8.979 -2.544 -1.084 0.700 0.700 1.000
8.494 -2.463 -1.027 0.700 0.700 1.000
8.360 -2.480 -1.013 0.700 0.700 1.000
7.897 -2.396 -0.958 0.700 0.700 1.000
7.861 -2.437 -0.956 0.700 0.700 1.000
7.776 -2.463 -0.947 0.700 0.700 1.000
7.831 -2.534 -0.956 0.700 0.700 1.000
7.830 -2.587 -0.958 0.700 0.700 1.000
7.825 -2.639 -0.959 0.700 0.700 1.000
7.820 -2.690 -0.960 0.700 0.700 1.000
7.799 -2.737 -0.960 0.700 0.700 1.000
7.802 -2.792 -0.962 0.700 0.700 1.000
7.790 -2.841 -0.963 0.700 0.700 1.000
7.786 -2.894 -0.965 0.700 0.700 1.000
7.775 -2.945 -0.966 0.700 0.700 1.000
7.779 -3.001 -0.968 0.700 0.700 1.000
7.749 -3.044 -0.967 0.700 0.700 1.000
7.747 -3.098 -0.969 0.700 0.700 1.000
7.752 -3.155 -0.972 0.700 0.700 1.000
7.757 -3.213 -0.975 0.700 0.700 1.000
7.760 -3.270 -0.978 0.700 0.700 1.000
7.758 -3.326 -0.980 0.700 0.700 1.000
7.745 -3.376 -0.981 0.700 0.700 1.000
7.758 -3.439 -0.986 0.700 0.700 1.000
7.730 -3.483 -0.985 0.700 0.700 1.000
7.701 -3.527 -0.984 0.700 0.700 1.000
7.854 -3.656 -1.006 0.700 0.700 1.000
8.629 -4.081 -1.109 0.700 0.700 1.000
8.496 -4.082 -1.095 0.700 0.700 1.000
8.358 -4.080 -1.080 0.700 0.700 1.000
8.214 -4.072 -1.065 0.700 0.700 1.000
8.088 -4.071 -1.052 0.700 0.700 1.000
7.917 -4.046 -1.033 0.700 0.700 1.000
7.813 -4.054 -1.022 0.700 0.700 1.000
7.704 -4.057 -1.011 0.700 0.700 1.000
7.579 -4.051 -0.998 0.700 0.700 1.000
7.470 -4.052 -0.987 0.700 0.700 1.000
7.340 -4.040 -0.973 0.700 0.700 1.000
7.226 -4.035 -0.961 0.700 0.700 1.000
7.114 -4.030 -0.950 0.700 0.700 1.000
7.020 -4.034 -0.940 0.700 0.700 1.000
6.925 -4.036 -0.931 0.700 0.700 1.000
6.806 -4.023 -0.918 0.700 0.700 1.000
6.732 -4.035 -0.912 0.700 0.700 1.000
6.678 -4.059 -0.908 0.700 0.700 1.000
6.555 -4.039 -0.894 0.700 0.700 1.000
6.454 -4.032 -0.884 0.700 0.700 1.000
6.359 -4.027 -0.874 0.700 0.700 1.000
6.269 -4.024 -0.865 0.700 0.700 1.000
6.189 -4.027 -0.858 0.700 0.700 1.000
6.111 -4.030 -0.850 0.700 0.700 1.000
6.039 -4.035 -0.844 0.700 0.700 1.000
5.966 -4.040 -0.837 0.700 0.700 1.000
5.864 -4.023 -0.826 0.700 0.700 1.000
5.783 -4.020 -0.818 0.700 0.700 1.000
5.696 -4.012 -0.809 0.700 0.700 1.000
5.628 -4.015 -0.803 0.700 0.700 1.000
5.550 -4.011 -0.795 0.700 0.700 1.000
5.471 -4.005 -0.787 0.700 0.700 1.000
5.404 -4.008 -0.782 0.700 0.700 1.000
5.324 -3.999 -0.773 0.700 0.700 1.000
5.277 -4.015 -0.770 0.700 0.700 1.000
5.228 -4.028 -0.767 0.700 0.700 1.000
5.142 -4.013 -0.758 0.700 0.700 1.000
5.072 -4.009 -0.751 0.700 0.700 1.000
5.003 -4.004 -0.744 0.700 0.700 1.000
4.945 -4.008 -0.739 0.700 0.700 1.000
4.867 -3.994 -0.731 0.700 0.700 1.000
4.801 -3.990 -0.725 0.700 0.700 1.000
4.720 -3.972 -0.717 0.700 0.700 1.000
4.649 -3.961 -0.709 0.700 0.700 1.000
4.605 -3.972 -0.706 0.700 0.700 1.000
4.546 -3.971 -0.701 0.700 0.700 1.000
4.495 -3.975 -0.697 0.700 0.700 1.000
4.448 -3.982 -0.693 0.700 0.700 1.000
4.402 -3.990 -0.690 0.700 0.700 1.000
4.358 -3.999 -0.687 0.700 0.700 1.000
4.289 -3.985 -0.680 0.700 0.700 1.000
4.232 -3.980 -0.675 0.700 0.700 1.000
4.186 -3.986 -0.671 0.700 0.700 1.000
4.125 -3.976 -0.665 0.700 0.700 1.000
4.067 -3.969 -0.660 0.700 0.700 1.000
4.013 -3.964 -0.655 0.700 0.700 1.000
3.967 -3.967 -0.652 0.700 0.700 1.000
3.932 -3.981 -0.650 0.700 0.700 1.000
3.877 -3.974 -0.645 0.700 0.700 1.000
3.824 -3.967 -0.640 0.700 0.700 1.000
3.780 -3.970 -0.637 0.700 0.700 1.000
3.726 -3.962 -0.632 0.700 0.700 1.000
3.670 -3.951 -0.626 0.700 0.700 1.000
3.623 -3.948 -0.622 0.700 0.700 1.000
3.584 -3.955 -0.620 0.700 0.700 1.000
9.383 -23.464 -2.935 0.700 0.700 1.000
3.395 -8.644 -1.079 0.700 0.700 1.000
3.366 -8.726 -1.086 0.700 0.700 1.000
3.313 -8.748 -1.086 0.700 0.700 1.000
3.259 -8.768 -1.087 0.700 0.700 1.000
8.500 -23.305 -2.881 0.700 0.700 1.000
8.307 -23.216 -2.864 0.700 0.700 1.000
8.241 -23.484 -2.891 0.700 0.700 1.000
2.907 -8.623 -1.057 0.700 0.700 1.000
2.866 -8.675 -1.061 0.700 0.700 1.000
2.818 -8.710 -1.063 0.700 0.700 1.000
7.862 -24.816 -3.023 0.700 0.700 1.000
7.721 -24.902 -3.028 0.700 0.700 1.000
7.608 -25.080 -3.044 0.700 0.700 1.000
2.531 -8.531 -1.033 0.700 0.700 1.000
2.506 -8.641 -1.045 0.700 0.700 1.000
2.449 -8.641 -1.043 0.700 0.700 1.000
2.377 -8.590 -1.035 0.700 0.700 1.000
2.358 -8.728 -1.050 0.700 0.700 1.000
2.309 -8.759 -1.052 0.700 0.700 1.000
9.374 -36.473 -4.374 0.700 0.700 1.000
9.181 -36.654 -4.389 0.700 0.700 1.000
8.981 -36.810 -4.401 0.700 0.700 1.000
9.140 -38.485 -4.594 0.700 0.700 1.000
8.931 -38.662 -4.609 0.700 0.700 1.000
8.741 -38.927 -4.634 0.700 0.700 1.000
8.556 -39.225 -4.663 0.700 0.700 1.000
6.458 -30.504 -3.621 0.700 0.700 1.000
6.304 -30.708 -3.641 0.700 0.700 1.000
6.149 -30.913 -3.661 0.700 0.700 1.000
6.017 -31.251 -3.696 0.700 0.700 1.000
-3.134 -4.336 -0.621 0.700 0.700 1.000
-3.222 -4.401 -0.633 0.700 0.700 1.000
-3.196 -4.309 -0.623 0.700 0.700 1.000
-3.389 -4.288 -0.635 0.700 0.700 1.000
-4.297 -5.369 -0.799 0.700 0.700 1.000
-3.365 -4.153 -0.621 0.700 0.700 1.000
-4.137 -4.736 -0.730 0.700 0.700 1.000
-4.278 -4.838 -0.750 0.700 0.700 1.000
-4.437 -4.956 -0.773 0.700 0.700 1.000
-4.231 -4.668 -0.732 0.700 0.700 1.000
-4.356 -4.747 -0.748 0.700 0.700 1.000
-4.406 -4.743 -0.752 0.700 0.700 1.000
-4.553 -4.841 -0.772 0.700 0.700 1.000
-4.314 -4.531 -0.727 0.700 0.700 1.000
-4.344 -4.507 -0.727 0.700 0.700 1.000
-4.221 -4.326 -0.702 0.700 0.700 1.000
-4.264 -4.316 -0.705 0.700 0.700 1.000
-4.411 -4.411 -0.725 0.700 0.700 1.000
-4.297 -4.245 -0.702 0.700 0.700 1.000
-4.401 -4.294 -0.714 0.700 0.700 1.000
-4.607 -4.441 -0.743 0.700 0.700 1.000
-4.861 -4.628 -0.780 0.700 0.700 1.000
-4.951 -4.656 -0.789 0.700 0.700 1.000
-5.011 -4.655 -0.794 0.700 0.700 1.000
-5.145 -4.721 -0.811 0.700 0.700 1.000
-4.807 -4.356 -0.753 0.700 0.700 1.000
-4.824 -4.319 -0.752 0.700 0.700 1.000
-4.897 -4.330 -0.759 0.700 0.700 1.000
-4.919 -4.296 -0.758 0.700 0.700 1.000
-4.959 -4.277 -0.761 0.700 0.700 1.000
-5.019 -4.276 -0.766 0.700 0.700 1.000
-5.101 -4.292 -0.774 0.700 0.700 1.000
-5.058 -4.203 -0.764 0.700 0.700 1.000
-5.514 -4.525 -0.829 0.700 0.700 1.000
-5.247 -4.200 -0.781 0.700 0.700 1.000
-5.544 -4.381 -0.821 0.700 0.700 1.000
-5.231 -4.082 -0.771 0.700 0.700 1.000
-4.973 -3.832 -0.729 0.700 0.700 1.000
-5.292 -4.026 -0.772 0.700 0.700 1.000
-5.332 -4.006 -0.775 0.700 0.700 1.000
-5.318 -3.944 -0.769 0.700 0.700 1.000
-5.348 -3.916 -0.770 0.700 0.700 1.000
-5.442 -3.934 -0.780 0.700 0.700 1.000
-5.470 -3.903 -0.781 0.700 0.700 1.000
-5.636 -3.969 -0.801 0.700 0.700 1.000
-5.750 -3.997 -0.813 0.700 0.700 1.000
-5.495 -3.770 -0.774 0.700 0.700 1.000
-5.584 -3.781 -0.783 0.700 0.700 1.000
-5.857 -3.914 -0.818 0.700 0.700 1.000
-6.024 -3.972 -0.838 0.700 0.700 1.000
-6.058 -3.941 -0.839 0.700 0.700 1.000
-6.045 -3.880 -0.834 0.700 0.700 1.000
-6.084 -3.853 -0.836 0.700 0.700 1.000
-6.117 -3.821 -0.838 0.700 0.700 1.000
-6.946 -4.280 -0.948 0.700 0.700 1.000
-6.986 -4.245 -0.949 0.700 0.700 1.000
-6.891 -4.130 -0.933 0.700 0.700 1.000
-6.919 -4.089 -0.933 0.700 0.700 1.000
-6.907 -4.025 -0.928 0.700 0.700 1.000
-6.905 -3.968 -0.925 0.700 0.700 1.000
-6.998 -3.964 -0.934 0.700 0.700 1.000
-7.035 -3.928 -0.936 0.700 0.700 1.000
-7.144 -3.932 -0.947 0.700 0.700 1.000
-7.489 -4.062 -0.989 0.700 0.700 1.000
-7.562 -4.042 -0.996 0.700 0.700 1.000
-7.593 -3.999 -0.997 0.700 0.700 1.000
-7.559 -3.922 -0.989 0.700 0.700 1.000
-7.664 -3.917 -1.000 0.700 0.700 1.000
-8.132 -4.093 -1.057 0.700 0.700 1.000
-8.333 -4.131 -1.080 0.700 0.700 1.000
-8.307 -4.054 -1.074 0.700 0.700 1.000
-7.898 -3.795 -1.018 0.700 0.700 1.000
-8.321 -3.936 -1.069 0.700 0.700 1.000
-8.364 -3.893 -1.072 0.700 0.700 1.000
-8.442 -3.867 -1.078 0.700 0.700 1.000
-8.898 -4.010 -1.134 0.700 0.700 1.000
-8.824 -3.911 -1.121 0.700 0.700 1.000
-8.819 -3.845 -1.117 0.700 0.700 1.000
-8.948 -3.836 -1.131 0.700 0.700 1.000
-9.257 -3.901 -1.167 0.700 0.700 1.000
-9.289 -3.847 -1.168 0.700 0.700 1.000
-9.621 -3.916 -1.206 0.700 0.700 1.000
-9.670 -3.867 -1.210 0.700 0.700 1.000
-9.825 -3.859 -1.226 0.700 0.700 1.000
-9.971 -3.846 -1.241 0.700 0.700 1.000
-10.121 -3.833 -1.257 0.700 0.700 1.000
-10.372 -3.856 -1.285 0.700 0.700 1.000
-10.622 -3.874 -1.313 0.700 0.700 1.000
-10.714 -3.834 -1.322 0.700 0.700 1.000
-10.923 -3.833 -1.345 0.700 0.700 1.000
-11.114 -3.824 -1.365 0.700 0.700 1.000
-11.621 -3.918 -1.424 0.700 0.700 1.000
-11.799 -3.898 -1.443 0.700 0.700 1.000
-12.108 -3.918 -1.478 0.700 0.700 1.000
-12.289 -3.893 -1.497 0.700 0.700 1.000
-12.518 -3.881 -1.522 0.700 0.700 1.000
-12.745 -3.866 -1.547 0.700 0.700 1.000
-12.810 -3.800 -1.552 0.700 0.700 1.000
-12.863 -3.730 -1.556 0.700 0.700 1.000
-12.934 -3.665 -1.561 0.700 0.700 1.000
-13.018 -3.602 -1.569 0.700 0.700 1.000
-13.093 -3.537 -1.575 0.700 0.700 1.000
-13.197 -3.478 -1.585 0.700 0.700 1.000
-13.372 -3.437 -1.604 0.700 0.700 1.000
-13.539 -3.391 -1.621 0.700 0.700 1.000
-13.712 -3.345 -1.639 0.700 0.700 1.000
-13.861 -3.292 -1.655 0.700 0.700 1.000
-13.980 -3.229 -1.666 0.700 0.700 1.000
-14.091 -3.164 -1.677 0.700 0.700 1.000
-14.163 -3.089 -1.684 0.700 0.700 1.000
-14.186 -3.003 -1.684 0.700 0.700 1.000
-14.202 -2.916 -1.684 0.700 0.700 1.000
-14.236 -2.832 -1.686 0.700 0.700 1.000
-14.262 -2.746 -1.687 0.700 0.700 1.000
-14.289 -2.660 -1.688 0.700 0.700 1.000
-14.330 -2.577 -1.691 0.700 0.700 1.000
-14.367 -2.493 -1.694 0.700 0.700 1.000
-14.442 -2.415 -1.701 0.700 0.700 1.000
-14.518 -2.336 -1.708 0.700 0.700 1.000
-14.562 -2.251 -1.711 0.700 0.700 1.000
-14.589 -2.164 -1.713 0.700 0.700 1.000
-14.602 -2.074 -1.713 0.700 0.700 1.000
-14.628 -1.987 -1.715 0.700 0.700 1.000
-14.644 -1.897 -1.715 0.700 0.700 1.000
-14.671 -1.809 -1.717 0.700 0.700 1.000
-14.695 -1.721 -1.718 0.700 0.700 1.000
-14.730 -1.634 -1.721 0.700 0.700 1.000
-14.743 -1.543 -1.722 0.700 0.700 1.000
-14.743 -1.452 -1.721 0.700 0.700 1.000
-14.768 -1.363 -1.722 0.700 0.700 1.000
-14.857 -1.279 -1.732 0.700 0.700 1.000
-14.868 -1.188 -1.732 0.700 0.700 1.000
-14.899 -1.099 -1.735 0.700 0.700 1.000
-14.941 -1.010 -1.739 0.700 0.700 1.000
-14.979 -0.920 -1.743 0.700 0.700 1.000
-15.005 -0.829 -1.745 0.700 0.700 1.000
-15.056 -0.740 -1.751 0.700 0.700 1.000
-15.088 -0.648 -1.754 0.700 0.700 1.000
-15.135 -0.557 -1.759 0.700 0.700 1.000
-15.159 -0.465 -1.761 0.700 0.700 1.000
-15.175 -0.373 -1.763 0.700 0.700 1.000
-15.191 -0.280 -1.765 0.700 0.700 1.000
-15.205 -0.187 -1.766 0.700 0.700 1.000
-15.215 -0.093 -1.767 0.700 0.700 1.000
-14.468 0.000 -1.792 0.700 0.700 1.000
-14.474 0.089 -1.793 0.700 0.700 1.000
-14.480 0.178 -1.794 0.700 0.700 1.000
-14.508 0.267 -1.798 0.700 0.700 1.000
-14.499 0.356 -1.797 0.700 0.700 1.000
-14.475 0.444 -1.794 0.700 0.700 1.000
-14.462 0.533 -1.793 0.700 0.700 1.000
-14.461 0.621 -1.793 0.700 0.700 1.000
-14.463 0.711 -1.794 0.700 0.700 1.000
-14.448 0.799 -1.793 0.700 0.700 1.000
-14.462 0.889 -1.795 0.700 0.700 1.000
-14.470 0.978 -1.797 0.700 0.700 1.000
-14.457 1.066 -1.796 0.700 0.700 1.000
-14.462 1.156 -1.797 0.700 0.700 1.000
-14.452 1.245 -1.797 0.700 0.700 1.000
-14.459 1.335 -1.799 0.700 0.700 1.000
-14.456 1.424 -1.800 0.700 0.700 1.000
-14.460 1.514 -1.801 0.700 0.700 1.000
-14.471 1.605 -1.804 0.700 0.700 1.000
-14.475 1.695 -1.806 0.700 0.700 1.000
-14.485 1.787 -1.808 0.700 0.700 1.000
-14.486 1.877 -1.810 0.700 0.700 1.000
-14.487 1.968 -1.811 0.700 0.700 1.000
-14.501 2.060 -1.815 0.700 0.700 1.000
-14.466 2.146 -1.812 0.700 0.700 1.000
-14.290 2.209 -1.792 0.700 0.700 1.000
-14.220 2.288 -1.784 0.700 0.700 1.000
-14.205 2.375 -1.784 0.700 0.700 1.000
-14.180 2.461 -1.783 0.700 0.700 1.000
-14.175 2.549 -1.784 0.700 0.700 1.000
-14.184 2.641 -1.788 0.700 0.700 1.000
-14.172 2.729 -1.788 0.700 0.700 1.000
-14.153 2.815 -1.788 0.700 0.700 1.000
-14.138 2.902 -1.788 0.700 0.700 1.000
-14.115 2.988 -1.788 0.700 0.700 1.000
-14.093 3.074 -1.787 0.700 0.700 1.000
-14.037 3.152 -1.782 0.700 0.700 1.000
-13.996 3.233 -1.780 0.700 0.700 1.000
-13.964 3.316 -1.778 0.700 0.700 1.000
-13.921 3.396 -1.775 0.700 0.700 1.000
-10.407 2.607 -1.329 0.700 0.700 1.000
-10.139 2.606 -1.297 0.700 0.700 1.000
-9.847 2.595 -1.262 0.700 0.700 1.000
-9.677 2.614 -1.242 0.700 0.700 1.000
-9.447 2.614 -1.214 0.700 0.700 1.000
-9.257 2.623 -1.192 0.700 0.700 1.000
-9.060 2.627 -1.169 0.700 0.700 1.000
-8.842 2.623 -1.143 0.700 0.700 1.000
-8.685 2.635 -1.124 0.700 0.700 1.000
-8.449 2.620 -1.096 0.700 0.700 1.000
-8.425 2.669 -1.095 0.700 0.700 1.000
-8.222 2.660 -1.071 0.700 0.700 1.000
-8.068 2.665 -1.053 0.700 0.700 1.000
-7.941 2.677 -1.038 0.700 0.700 1.000
-7.740 2.663 -1.014 0.700 0.700 1.000
-7.589 2.663 -0.996 0.700 0.700 1.000
-7.516 2.689 -0.989 0.700 0.700 1.000
-7.356 2.683 -0.970 0.700 0.700 1.000
-7.246 2.694 -0.958 0.700 0.700 1.000
-7.337 2.779 -0.972 0.700 0.700 1.000
-7.527 2.903 -1.000 0.700 0.700 1.000
-7.515 2.952 -1.000 0.700 0.700 1.000
-7.504 3.001 -1.001 0.700 0.700 1.000
-7.504 3.054 -1.004 0.700 0.700 1.000
-7.499 3.106 -1.006 0.700 0.700 1.000
-7.517 3.168 -1.011 0.700 0.700 1.000
-7.516 3.222 -1.013 0.700 0.700 1.000
-7.503 3.271 -1.014 0.700 0.700 1.000
-7.499 3.324 -1.016 0.700 0.700 1.000
-7.381 3.326 -1.003 0.700 0.700 1.000
-7.364 3.373 -1.004 0.700 0.700 1.000
-7.352 3.422 -1.005 0.700 0.700 1.000
-7.347 3.475 -1.007 0.700 0.700 1.000
-7.346 3.530 -1.010 0.700 0.700 1.000
-7.352 3.588 -1.014 0.700 0.700 1.000
-7.426 3.681 -1.027 0.700 0.700 1.000
-7.526 3.788 -1.044 0.700 0.700 1.000
-7.534 3.850 -1.048 0.700 0.700 1.000
-7.526 3.905 -1.050 0.700 0.700 1.000
-7.530 3.966 -1.054 0.700 0.700 1.000
-7.546 4.033 -1.060 0.700 0.700 1.000
-7.544 4.092 -1.063 0.700 0.700 1.000
-7.541 4.151 -1.066 0.700 0.700 1.000
-7.505 4.191 -1.065 0.700 0.700 1.000
-7.498 4.248 -1.068 0.700 0.700 1.000
-8.396 4.824 -1.200 0.700 0.700 1.000
-8.309 4.843 -1.191 0.700 0.700 1.000
-8.157 4.821 -1.174 0.700 0.700 1.000
-8.033 4.815 -1.160 0.700 0.700 1.000
-7.937 4.824 -1.151 0.700 0.700 1.000
-7.824 4.821 -1.139 0.700 0.700 1.000
-7.741 4.836 -1.131 0.700 0.700 1.000
-7.624 4.828 -1.118 0.700 0.700 1.000
-7.535 4.837 -1.109 0.700 0.700 1.000
-7.432 4.835 -1.098 0.700 0.700 1.000
-7.342 4.841 -1.090 0.700 0.700 1.000
-7.246 4.842 -1.080 0.700 0.700 1.000
-7.155 4.845 -1.071 0.700 0.700 1.000
-7.088 4.863 -1.065 0.700 0.700 1.000
-6.983 4.854 -1.054 0.700 0.700 1.000
-6.885 4.849 -1.043 0.700 0.700 1.000
-6.799 4.851 -1.035 0.700 0.700 1.000
-6.746 4.876 -1.031 0.700 0.700 1.000
-6.670 4.884 -1.024 0.700 0.700 1.000
-6.557 4.863 -1.011 0.700 0.700 1.000
-6.460 4.853 -1.001 0.700 0.700 1.000
-6.394 4.865 -0.995 0.700 0.700 1.000
-6.323 4.873 -0.989 0.700 0.700 1.000
-6.230 4.862 -0.979 0.700 0.700 1.000
-6.166 4.873 -0.974 0.700 0.700 1.000
-6.068 4.856 -0.963 0.700 0.700 1.000
-5.993 4.857 -0.956 0.700 0.700 1.000
-5.934 4.870 -0.951 0.700 0.700 1.000
-5.857 4.867 -0.944 0.700 0.700 1.000
-5.776 4.860 -0.935 0.700 0.700 1.000
-5.685 4.843 -0.925 0.700 0.700 1.000
-5.607 4.837 -0.917 0.700 0.700 1.000
-5.557 4.853 -0.914 0.700 0.700 1.000
-5.503 4.866 -0.910 0.700 0.700 1.000
-5.422 4.854 -0.902 0.700 0.700 1.000
-5.338 4.838 -0.893 0.700 0.700 1.000
-5.274 4.839 -0.887 0.700 0.700 1.000
-5.222 4.851 -0.883 0.700 0.700 1.000
-5.140 4.834 -0.874 0.700 0.700 1.000
-5.089 4.845 -0.870 0.700 0.700 1.000
-5.035 4.853 -0.866 0.700 0.700 1.000
-4.978 4.857 -0.862 0.700 0.700 1.000
-4.915 4.855 -0.856 0.700 0.700 1.000
-4.855 4.855 -0.851 0.700 0.700 1.000
-4.796 4.855 -0.845 0.700 0.700 1.000
-4.727 4.844 -0.839 0.700 0.700 1.000
-4.677 4.852 -0.835 0.700 0.700 1.000
-1.086 4.451 -0.568 0.700 0.700 1.000
-1.062 4.472 -0.569 0.700 0.700 1.000
-1.017 4.527 -0.575 0.700 0.700 1.000
-0.974 4.465 -0.566 0.700 0.700 1.000
-0.961 4.539 -0.575 0.700 0.700 1.000
-0.866 4.500 -0.568 0.700 0.700 1.000
-0.777 4.475 -0.563 0.700 0.700 1.000
-0.756 4.521 -0.568 0.700 0.700 1.000
-0.736 4.573 -0.574 0.700 0.700 1.000
-0.691 4.471 -0.561 0.700 0.700 1.000
-0.672 4.531 -0.567 0.700 0.700 1.000
-0.639 4.497 -0.563 0.700 0.700 1.000
-0.617 4.545 -0.568 0.700 0.700 1.000
-0.570 4.402 -0.550 0.700 0.700 1.000
-0.548 4.443 -0.555 0.700 0.700 1.000
-0.521 4.446 -0.555 0.700 0.700 1.000
-0.495 4.468 -0.557 0.700 0.700 1.000
-0.469 4.476 -0.558 0.700 0.700 1.000
-0.440 4.469 -0.556 0.700 0.700 1.000
-0.414 4.487 -0.558 0.700 0.700 1.000
-0.387 4.494 -0.559 0.700 0.700 1.000
-0.358 4.480 -0.557 0.700 0.700 1.000
-0.330 4.477 -0.556 0.700 0.700 1.000
-0.304 4.490 -0.558 0.700 0.700 1.000
-0.277 4.515 -0.560 0.700 0.700 1.000
-0.249 4.499 -0.558 0.700 0.700 1.000
-0.222 4.511 -0.560 0.700 0.700 1.000
-0.192 4.469 -0.554 0.700 0.700 1.000
-0.165 4.476 -0.555 0.700 0.700 1.000
-0.137 4.475 -0.555 0.700 0.700 1.000
-0.109 4.441 -0.550 0.700 0.700 1.000
-0.082 4.457 -0.552 0.700 0.700 1.000
-0.055 4.446 -0.551 0.700 0.700 1.000
-0.027 4.443 -0.550 0.700 0.700 1.000
0.000 4.431 -0.549 0.700 0.700 1.000
0.027 4.429 -0.549 0.700 0.700 1.000
0.055 4.481 -0.555 0.700 0.700 1.000
0.083 4.504 -0.558 0.700 0.700 1.000
0.109 4.426 -0.549 0.700 0.700 1.000
0.136 4.435 -0.550 0.700 0.700 1.000
0.165 4.480 -0.555 0.700 0.700 1.000
0.189 4.394 -0.545 0.700 0.700 1.000
0.218 4.432 -0.550 0.700 0.700 1.000
0.251 4.544 -0.564 0.700 0.700 1.000
0.312 4.613 -0.573 0.700 0.700 1.000
0.335 4.546 -0.565 0.700 0.700 1.000
0.367 4.589 -0.570 0.700 0.700 1.000
0.391 4.537 -0.564 0.700 0.700 1.000
0.415 4.491 -0.559 0.700 0.700 1.000
0.448 4.550 -0.566 0.700 0.700 1.000
0.476 4.551 -0.567 0.700 0.700 1.000
0.499 4.499 -0.561 0.700 0.700 1.000
0.533 4.553 -0.568 0.700 0.700 1.000
0.563 4.569 -0.570 0.700 0.700 1.000
0.590 4.550 -0.568 0.700 0.700 1.000
0.649 4.570 -0.572 0.700 0.700 1.000
0.673 4.534 -0.568 0.700 0.700 1.000
5.116 4.468 -0.841 0.700 0.700 1.000
5.129 4.425 -0.839 0.700 0.700 1.000
5.157 4.393 -0.839 0.700 0.700 1.000
5.200 4.375 -0.842 0.700 0.700 1.000
5.209 4.328 -0.839 0.700 0.700 1.000
5.298 4.348 -0.849 0.700 0.700 1.000
5.338 4.326 -0.851 0.700 0.700 1.000
5.434 4.349 -0.862 0.700 0.700 1.000
5.498 4.346 -0.868 0.700 0.700 1.000
5.558 4.338 -0.873 0.700 0.700 1.000
5.658 4.360 -0.885 0.700 0.700 1.000
5.871 4.467 -0.914 0.700 0.700 1.000
5.729 4.304 -0.888 0.700 0.700 1.000
6.144 4.557 -0.948 0.700 0.700 1.000
6.061 4.438 -0.931 0.700 0.700 1.000
6.137 4.436 -0.938 0.700 0.700 1.000
5.799 4.137 -0.883 0.700 0.700 1.000
5.803 4.087 -0.879 0.700 0.700 1.000
5.803 4.034 -0.876 0.700 0.700 1.000
5.794 3.975 -0.871 0.700 0.700 1.000
5.803 3.929 -0.868 0.700 0.700 1.000
5.815 3.886 -0.867 0.700 0.700 1.000
5.880 3.877 -0.873 0.700 0.700 1.000
5.941 3.865 -0.878 0.700 0.700 1.000
6.018 3.863 -0.886 0.700 0.700 1.000
