18.903 5.231 -1.372 0.700 0.700 1.000
19.574 5.288 -1.418 0.700 0.700 1.000
19.969 5.263 -1.444 0.700 0.700 1.000
20.376 5.237 -1.471 0.700 0.700 1.000
20.828 5.217 -1.501 0.700 0.700 1.000
21.274 5.190 -1.531 0.700 0.700 1.000
21.727 5.160 -1.562 0.700 0.700 1.000
22.248 5.140 -1.597 0.700 0.700 1.000
22.737 5.106 -1.630 0.700 0.700 1.000
23.591 5.146 -1.688 0.700 0.700 1.000
24.130 5.108 -1.725 0.700 0.700 1.000
24.740 5.079 -1.766 0.700 0.700 1.000
25.050 4.983 -1.786 0.700 0.700 1.000
25.972 5.001 -1.849 0.700 0.700 1.000
26.692 4.970 -1.899 0.700 0.700 1.000
27.441 4.935 -1.950 0.700 0.700 1.000
28.161 4.886 -1.999 0.700 0.700 1.000
28.843 4.823 -2.045 0.700 0.700 1.000
28.903 4.651 -2.047 0.700 0.700 1.000
28.961 4.478 -2.049 0.700 0.700 1.000
29.924 4.439 -2.115 0.700 0.700 1.000
35.315 5.017 -2.494 0.700 0.700 1.000
35.090 4.766 -2.476 0.700 0.700 1.000
34.898 4.522 -2.461 0.700 0.700 1.000
34.701 4.280 -2.445 0.700 0.700 1.000
34.443 4.034 -2.425 0.700 0.700 1.000
34.168 3.789 -2.404 0.700 0.700 1.000
33.910 3.550 -2.384 0.700 0.700 1.000
33.662 3.315 -2.365 0.700 0.700 1.000
33.083 3.054 -2.323 0.700 0.700 1.000
32.907 2.834 -2.310 0.700 0.700 1.000
32.482 2.596 -2.279 0.700 0.700 1.000
31.868 2.351 -2.234 0.700 0.700 1.000
31.518 2.131 -2.209 0.700 0.700 1.000
31.263 1.921 -2.190 0.700 0.700 1.000
31.060 1.717 -2.175 0.700 0.700 1.000
30.966 1.521 -2.168 0.700 0.700 1.000
30.751 1.322 -2.152 0.700 0.700 1.000
30.544 1.125 -2.137 0.700 0.700 1.000
30.179 0.926 -2.111 0.700 0.700 1.000
29.929 0.735 -2.093 0.700 0.700 1.000
29.722 0.547 -2.079 0.700 0.700 1.000
29.481 0.362 -2.062 0.700 0.700 1.000
29.317 0.180 -2.050 0.700 0.700 1.000
12.945 -0.000 -0.905 0.700 0.700 1.000
22.061 -2.996 -1.557 0.700 0.700 1.000
21.899 -3.111 -1.547 0.700 0.700 1.000
21.736 -3.224 -1.537 0.700 0.700 1.000
21.576 -3.336 -1.527 0.700 0.700 1.000
21.470 -3.455 -1.521 0.700 0.700 1.000
19.847 -3.318 -1.407 0.700 0.700 1.000
19.799 -3.435 -1.405 0.700 0.700 1.000
18.986 -3.414 -1.349 0.700 0.700 1.000
18.176 -3.384 -1.293 0.700 0.700 1.000
17.092 -3.291 -1.217 0.700 0.700 1.000
16.728 -3.327 -1.193 0.700 0.700 1.000
16.117 -3.309 -1.151 0.700 0.700 1.000
15.498 -3.281 -1.108 0.700 0.700 1.000
14.659 -3.197 -1.049 0.700 0.700 1.000
14.162 -3.180 -1.015 0.700 0.700 1.000
13.705 -3.166 -0.984 0.700 0.700 1.000
13.262 -3.149 -0.953 0.700 0.700 1.000
12.878 -3.142 -0.927 0.700 0.700 1.000
12.489 -3.128 -0.900 0.700 0.700 1.000
12.129 -3.117 -0.876 0.700 0.700 1.000
11.873 -3.129 -0.859 0.700 0.700 1.000
11.560 -3.123 -0.837 0.700 0.700 1.000
11.550 -3.196 -0.838 0.700 0.700 1.000
11.241 -3.185 -0.817 0.700 0.700 1.000
11.098 -3.219 -0.808 0.700 0.700 1.000
10.849 -3.219 -0.791 0.700 0.700 1.000
10.583 -3.210 -0.773 0.700 0.700 1.000
10.347 -3.208 -0.758 0.700 0.700 1.000
10.098 -3.199 -0.741 0.700 0.700 1.000
9.877 -3.196 -0.726 0.700 0.700 1.000
9.673 -3.196 -0.712 0.700 0.700 1.000
9.483 -3.197 -0.700 0.700 0.700 1.000
9.133 -3.142 -0.675 0.700 0.700 1.000
8.951 -3.141 -0.663 0.700 0.700 1.000
8.801 -3.149 -0.654 0.700 0.700 1.000
8.637 -3.150 -0.643 0.700 0.700 1.000
8.419 -3.129 -0.628 0.700 0.700 1.000
8.347 -3.161 -0.624 0.700 0.700 1.000
8.153 -3.145 -0.611 0.700 0.700 1.000
7.979 -3.134 -0.599 0.700 0.700 1.000
7.804 -3.121 -0.588 0.700 0.700 1.000
7.632 -3.106 -0.576 0.700 0.700 1.000
7.487 -3.101 -0.567 0.700 0.700 1.000
7.354 -3.099 -0.558 0.700 0.700 1.000
7.220 -3.095 -0.549 0.700 0.700 1.000
7.080 -3.086 -0.540 0.700 0.700 1.000
6.954 -3.083 -0.532 0.700 0.700 1.000
6.861 -3.092 -0.526 0.700 0.700 1.000
6.662 -3.051 -0.512 0.700 0.700 1.000
6.565 -3.056 -0.506 0.700 0.700 1.000
6.476 -3.063 -0.501 0.700 0.700 1.000
6.389 -3.070 -0.496 0.700 0.700 1.000
6.253 -3.052 -0.487 0.700 0.700 1.000
6.179 -3.063 -0.482 0.700 0.700 1.000
6.069 -3.055 -0.475 0.700 0.700 1.000
5.977 -3.055 -0.469 0.700 0.700 1.000
5.868 -3.044 -0.462 0.700 0.700 1.000
5.850 -3.081 -0.462 0.700 0.700 1.000
5.677 -3.035 -0.450 0.700 0.700 1.000
5.580 -3.027 -0.444 0.700 0.700 1.000
5.488 -3.021 -0.438 0.700 0.700 1.000
5.396 -3.013 -0.432 0.700 0.700 1.000
5.398 -3.058 -0.434 0.700 0.700 1.000
4.892 -2.892 -0.397 0.700 0.700 1.000
4.849 -2.907 -0.395 0.700 0.700 1.000
4.675 -2.881 -0.384 0.700 0.700 1.000
4.604 -2.876 -0.380 0.700 0.700 1.000
4.535 -2.872 -0.375 0.700 0.700 1.000
4.462 -2.864 -0.371 0.700 0.700 1.000
4.406 -2.866 -0.368 0.700 0.700 1.000
4.334 -2.858 -0.363 0.700 0.700 1.000
4.312 -2.881 -0.363 0.700 0.700 1.000
4.305 -2.915 -0.364 0.700 0.700 1.000
4.311 -2.958 -0.366 0.700 0.700 1.000
4.303 -2.991 -0.366 0.700 0.700 1.000
4.311 -3.036 -0.369 0.700 0.700 1.000
4.306 -3.073 -0.370 0.700 0.700 1.000
4.258 -3.078 -0.367 0.700 0.700 1.000
4.230 -3.097 -0.367 0.700 0.700 1.000
6.219 -4.672 -0.544 0.700 0.700 1.000
4.780 -3.683 -0.422 0.700 0.700 1.000
4.265 -3.328 -0.378 0.700 0.700 1.000
4.617 -3.742 -0.416 0.700 0.700 1.000
4.170 -3.422 -0.377 0.700 0.700 1.000
3.240 -2.937 -0.306 0.700 0.700 1.000
3.208 -2.944 -0.304 0.700 0.700 1.000
3.185 -2.958 -0.304 0.700 0.700 1.000
3.198 -3.008 -0.307 0.700 0.700 1.000
3.158 -3.007 -0.305 0.700 0.700 1.000
3.121 -3.008 -0.303 0.700 0.700 1.000
3.104 -3.029 -0.303 0.700 0.700 1.000
3.963 -3.914 -0.389 0.700 0.700 1.000
3.892 -3.892 -0.385 0.700 0.700 1.000
2.943 -2.979 -0.293 0.700 0.700 1.000
2.970 -3.044 -0.297 0.700 0.700 1.000
2.846 -3.026 -0.290 0.700 0.700 1.000
2.712 -3.030 -0.284 0.700 0.700 1.000
4.884 -5.523 -0.516 0.700 0.700 1.000
4.853 -5.557 -0.516 0.700 0.700 1.000
4.848 -5.620 -0.519 0.700 0.700 1.000
2.565 -3.011 -0.277 0.700 0.700 1.000
2.508 -2.981 -0.272 0.700 0.700 1.000
4.853 -5.840 -0.531 0.700 0.700 1.000
2.430 -2.961 -0.268 0.700 0.700 1.000
2.410 -2.974 -0.268 0.700 0.700 1.000
2.376 -2.968 -0.266 0.700 0.700 1.000
2.350 -2.974 -0.265 0.700 0.700 1.000
2.310 -2.960 -0.263 0.700 0.700 1.000
2.282 -2.961 -0.261 0.700 0.700 1.000
2.254 -2.963 -0.260 0.700 0.700 1.000
2.227 -2.965 -0.259 0.700 0.700 1.000
2.198 -2.964 -0.258 0.700 0.700 1.000
2.158 -2.947 -0.255 0.700 0.700 1.000
2.141 -2.962 -0.256 0.700 0.700 1.000
2.116 -2.966 -0.255 0.700 0.700 1.000
2.083 -2.958 -0.253 0.700 0.700 1.000
2.059 -2.962 -0.252 0.700 0.700 1.000
2.036 -2.968 -0.252 0.700 0.700 1.000
4.933 -7.285 -0.615 0.700 0.700 1.000
4.881 -7.305 -0.614 0.700 0.700 1.000
4.865 -7.379 -0.618 0.700 0.700 1.000
1.915 -2.943 -0.246 0.700 0.700 1.000
1.900 -2.960 -0.246 0.700 0.700 1.000
1.867 -2.948 -0.244 0.700 0.700 1.000
1.845 -2.953 -0.243 0.700 0.700 1.000
1.807 -2.933 -0.241 0.700 0.700 1.000
1.805 -2.970 -0.243 0.700 0.700 1.000
5.030 -8.392 -0.684 0.700 0.700 1.000
4.964 -8.398 -0.682 0.700 0.700 1.000
4.885 -8.381 -0.678 0.700 0.700 1.000
4.818 -8.384 -0.676 0.700 0.700 1.000
4.777 -8.433 -0.678 0.700 0.700 1.000
4.820 -8.631 -0.691 0.700 0.700 1.000
4.850 -8.811 -0.703 0.700 0.700 1.000
4.793 -8.835 -0.703 0.700 0.700 1.000
4.743 -8.874 -0.704 0.700 0.700 1.000
4.700 -8.925 -0.705 0.700 0.700 1.000
1.559 -3.005 -0.237 0.700 0.700 1.000
4.647 -9.093 -0.714 0.700 0.700 1.000
4.685 -9.308 -0.729 0.700 0.700 1.000
4.702 -9.487 -0.740 0.700 0.700 1.000
4.624 -9.474 -0.737 0.700 0.700 1.000
4.645 -9.668 -0.750 0.700 0.700 1.000
1.425 -3.012 -0.233 0.700 0.700 1.000
4.505 -9.677 -0.746 0.700 0.700 1.000
4.420 -9.649 -0.742 0.700 0.700 1.000
4.385 -9.730 -0.746 0.700 0.700 1.000
4.331 -9.770 -0.747 0.700 0.700 1.000
4.280 -9.818 -0.749 0.700 0.700 1.000
4.221 -9.847 -0.749 0.700 0.700 1.000
4.133 -9.807 -0.744 0.700 0.700 1.000
4.119 -9.945 -0.753 0.700 0.700 1.000
4.063 -9.981 -0.754 0.700 0.700 1.000
4.001 -10.004 -0.753 0.700 0.700 1.000
3.925 -9.992 -0.751 0.700 0.700 1.000
3.861 -10.009 -0.750 0.700 0.700 1.000
3.789 -10.005 -0.748 0.700 0.700 1.000
3.720 -10.009 -0.747 0.700 0.700 1.000
3.650 -10.007 -0.745 0.700 0.700 1.000
3.581 -10.007 -0.743 0.700 0.700 1.000
3.507 -9.995 -0.741 0.700 0.700 1.000
3.439 -9.998 -0.739 0.700 0.700 1.000
3.373 -10.003 -0.738 0.700 0.700 1.000
3.304 -10.003 -0.737 0.700 0.700 1.000
3.239 -10.010 -0.736 0.700 0.700 1.000
3.174 -10.018 -0.735 0.700 0.700 1.000
3.108 -10.024 -0.734 0.700 0.700 1.000
3.039 -10.020 -0.732 0.700 0.700 1.000
2.982 -10.052 -0.733 0.700 0.700 1.000
2.910 -10.033 -0.730 0.700 0.700 1.000
2.840 -10.023 -0.728 0.700 0.700 1.000
0.821 -2.966 -0.215 0.700 0.700 1.000
2.710 -10.033 -0.727 0.700 0.700 1.000
2.642 -10.025 -0.725 0.700 0.700 1.000
2.581 -10.043 -0.725 0.700 0.700 1.000
2.515 -10.039 -0.724 0.700 0.700 1.000
2.447 -10.031 -0.722 0.700 0.700 1.000
2.378 -10.013 -0.720 0.700 0.700 1.000
2.210 -9.565 -0.686 0.700 0.700 1.000
0.665 -2.960 -0.212 0.700 0.700 1.000
0.610 -2.797 -0.200 0.700 0.700 1.000
0.585 -2.763 -0.198 0.700 0.700 1.000
0.568 -2.765 -0.197 0.700 0.700 1.000
0.549 -2.760 -0.197 0.700 0.700 1.000
0.531 -2.758 -0.196 0.700 0.700 1.000
0.512 -2.750 -0.196 0.700 0.700 1.000
0.495 -2.755 -0.196 0.700 0.700 1.000
0.478 -2.753 -0.195 0.700 0.700 1.000
0.461 -2.759 -0.196 0.700 0.700 1.000
0.443 -2.756 -0.195 0.700 0.700 1.000
0.428 -2.766 -0.196 0.700 0.700 1.000
0.410 -2.761 -0.195 0.700 0.700 1.000
0.392 -2.757 -0.195 0.700 0.700 1.000
0.371 -2.734 -0.193 0.700 0.700 1.000
0.357 -2.758 -0.194 0.700 0.700 1.000
0.341 -2.762 -0.195 0.700 0.700 1.000
0.320 -2.730 -0.192 0.700 0.700 1.000
0.302 -2.726 -0.192 0.700 0.700 1.000
0.286 -2.734 -0.192 0.700 0.700 1.000
0.271 -2.750 -0.193 0.700 0.700 1.000
0.253 -2.746 -0.193 0.700 0.700 1.000
0.238 -2.759 -0.194 0.700 0.700 1.000
0.219 -2.743 -0.192 0.700 0.700 1.000
0.204 -2.765 -0.194 0.700 0.700 1.000
0.187 -2.773 -0.194 0.700 0.700 1.000
0.173 -2.822 -0.198 0.700 0.700 1.000
0.164 -2.972 -0.208 0.700 0.700 1.000
0.191 -3.890 -0.272 0.700 0.700 1.000
0.322 -7.493 -0.524 0.700 0.700 1.000
0.413 -11.211 -0.784 0.700 0.700 1.000
0.342 -11.150 -0.780 0.700 0.700 1.000
0.276 -11.243 -0.786 0.700 0.700 1.000
0.207 -11.234 -0.786 0.700 0.700 1.000
0.138 -11.240 -0.786 0.700 0.700 1.000
0.071 -11.560 -0.808 0.700 0.700 1.000
0.000 -12.635 -0.884 0.700 0.700 1.000
-0.078 -12.633 -0.883 0.700 0.700 1.000
-0.155 -12.618 -0.882 0.700 0.700 1.000
-0.232 -12.607 -0.882 0.700 0.700 1.000
-0.309 -12.594 -0.881 0.700 0.700 1.000
-0.386 -12.589 -0.881 0.700 0.700 1.000
-0.462 -12.547 -0.878 0.700 0.700 1.000
-0.539 -12.550 -0.878 0.700 0.700 1.000
-0.615 -12.526 -0.877 0.700 0.700 1.000
-0.691 -12.506 -0.876 0.700 0.700 1.000
-0.767 -12.488 -0.875 0.700 0.700 1.000
-0.843 -12.471 -0.874 0.700 0.700 1.000
-0.917 -12.430 -0.872 0.700 0.700 1.000
-0.992 -12.412 -0.871 0.700 0.700 1.000
-1.067 -12.388 -0.869 0.700 0.700 1.000
-1.140 -12.351 -0.867 0.700 0.700 1.000
-1.205 -12.234 -0.860 0.700 0.700 1.000
-1.285 -12.279 -0.863 0.700 0.700 1.000
-1.360 -12.262 -0.863 0.700 0.700 1.000
-1.434 -12.246 -0.862 0.700 0.700 1.000
-1.507 -12.221 -0.861 0.700 0.700 1.000
-1.581 -12.204 -0.860 0.700 0.700 1.000
-1.651 -12.156 -0.858 0.700 0.700 1.000
-1.727 -12.156 -0.859 0.700 0.700 1.000
-1.803 -12.153 -0.859 0.700 0.700 1.000
-1.876 -12.136 -0.859 0.700 0.700 1.000
-1.949 -12.114 -0.858 0.700 0.700 1.000
-2.024 -12.106 -0.858 0.700 0.700 1.000
-2.097 -12.083 -0.858 0.700 0.700 1.000
-2.169 -12.061 -0.857 0.700 0.700 1.000
-2.244 -12.051 -0.857 0.700 0.700 1.000
-2.315 -12.021 -0.856 0.700 0.700 1.000
-2.385 -11.988 -0.855 0.700 0.700 1.000
-2.330 -11.348 -0.810 0.700 0.700 1.000
-2.355 -11.124 -0.795 0.700 0.700 1.000
-2.421 -11.102 -0.795 0.700 0.700 1.000
-2.440 -10.864 -0.779 0.700 0.700 1.000
-2.509 -10.861 -0.779 0.700 0.700 1.000
-2.578 -10.856 -0.780 0.700 0.700 1.000
-2.647 -10.850 -0.781 0.700 0.700 1.000
-2.685 -10.718 -0.773 0.700 0.700 1.000
-2.749 -10.695 -0.772 0.700 0.700 1.000
-2.855 -10.831 -0.783 0.700 0.700 1.000
-2.928 -10.840 -0.785 0.700 0.700 1.000
-3.005 -10.858 -0.788 0.700 0.700 1.000
-3.822 -13.487 -0.980 0.700 0.700 1.000
-3.886 -13.401 -0.976 0.700 0.700 1.000
-3.962 -13.356 -0.974 0.700 0.700 1.000
-4.038 -13.313 -0.973 0.700 0.700 1.000
-4.139 -13.349 -0.977 0.700 0.700 1.000
-4.216 -13.308 -0.976 0.700 0.700 1.000
-4.310 -13.322 -0.979 0.700 0.700 1.000
-4.389 -13.285 -0.978 0.700 0.700 1.000
-4.513 -13.385 -0.988 0.700 0.700 1.000
-4.598 -13.365 -0.988 0.700 0.700 1.000
-4.687 -13.357 -0.990 0.700 0.700 1.000
-4.101 -11.461 -0.851 0.700 0.700 1.000
-4.040 -11.076 -0.824 0.700 0.700 1.000
-4.101 -11.034 -0.823 0.700 0.700 1.000
-4.175 -11.024 -0.824 0.700 0.700 1.000
-3.019 -7.827 -0.587 0.700 0.700 1.000
-3.073 -7.823 -0.588 0.700 0.700 1.000
-4.467 -11.171 -0.841 0.700 0.700 1.000
-4.540 -11.154 -0.842 0.700 0.700 1.000
-4.626 -11.168 -0.845 0.700 0.700 1.000
-4.705 -11.165 -0.847 0.700 0.700 1.000
-4.777 -11.143 -0.848 0.700 0.700 1.000
-4.864 -11.158 -0.851 0.700 0.700 1.000
-4.933 -11.130 -0.851 0.700 0.700 1.000
-5.019 -11.137 -0.854 0.700 0.700 1.000
-5.095 -11.125 -0.856 0.700 0.700 1.000
-5.173 -11.113 -0.857 0.700 0.700 1.000
-5.089 -10.760 -0.832 0.700 0.700 1.000
-5.024 -10.456 -0.811 0.700 0.700 1.000
-5.042 -10.330 -0.804 0.700 0.700 1.000
-5.493 -11.082 -0.865 0.700 0.700 1.000
-5.570 -11.067 -0.866 0.700 0.700 1.000
-5.480 -10.722 -0.842 0.700 0.700 1.000
-5.469 -10.541 -0.830 0.700 0.700 1.000
-5.437 -10.323 -0.816 0.700 0.700 1.000
-5.859 -10.962 -0.869 0.700 0.700 1.000
-5.985 -11.035 -0.878 0.700 0.700 1.000
-6.071 -11.031 -0.880 0.700 0.700 1.000
-6.164 -11.039 -0.884 0.700 0.700 1.000
-6.249 -11.032 -0.887 0.700 0.700 1.000
-3.338 -5.808 -0.468 0.700 0.700 1.000
-3.071 -5.269 -0.426 0.700 0.700 1.000
-6.524 -11.037 -0.897 0.700 0.700 1.000
-3.256 -5.284 -0.434 0.700 0.700 1.000
-3.294 -5.274 -0.435 0.700 0.700 1.000
-3.309 -3.229 -0.323 0.700 0.700 1.000
-3.309 -3.189 -0.321 0.700 0.700 1.000
-3.317 -3.158 -0.320 0.700 0.700 1.000
-3.323 -3.125 -0.319 0.700 0.700 1.000
-3.441 -3.157 -0.327 0.700 0.700 1.000
-3.459 -3.135 -0.326 0.700 0.700 1.000
-3.493 -3.127 -0.328 0.700 0.700 1.000
-3.491 -3.087 -0.326 0.700 0.700 1.000
-14.691 -9.816 -1.235 0.700 0.700 1.000
-14.744 -9.721 -1.235 0.700 0.700 1.000
-14.976 -9.743 -1.249 0.700 0.700 1.000
-15.223 -9.772 -1.265 0.700 0.700 1.000
-15.411 -9.759 -1.276 0.700 0.700 1.000
-10.391 -6.491 -0.857 0.700 0.700 1.000
-10.351 -6.378 -0.850 0.700 0.700 1.000
-10.322 -6.273 -0.845 0.700 0.700 1.000
-10.300 -6.174 -0.840 0.700 0.700 1.000
-10.271 -6.071 -0.834 0.700 0.700 1.000
-10.277 -5.990 -0.832 0.700 0.700 1.000
-10.241 -5.885 -0.826 0.700 0.700 1.000
-10.234 -5.797 -0.822 0.700 0.700 1.000
-10.232 -5.714 -0.820 0.700 0.700 1.000
-10.224 -5.627 -0.816 0.700 0.700 1.000
-10.230 -5.549 -0.814 0.700 0.700 1.000
-10.220 -5.463 -0.810 0.700 0.700 1.000
-10.117 -5.328 -0.800 0.700 0.700 1.000
-10.215 -5.300 -0.805 0.700 0.700 1.000
-10.236 -5.231 -0.804 0.700 0.700 1.000
-10.128 -4.564 -0.777 0.700 0.700 1.000
-10.081 -4.469 -0.771 0.700 0.700 1.000
-10.065 -3.671 -0.749 0.700 0.700 1.000
-10.079 -3.606 -0.749 0.700 0.700 1.000
-10.088 -3.540 -0.748 0.700 0.700 1.000
-10.065 -3.463 -0.744 0.700 0.700 1.000
-10.075 -3.397 -0.744 0.700 0.700 1.000
-10.107 -3.339 -0.744 0.700 0.700 1.000
-10.139 -3.280 -0.745 0.700 0.700 1.000
-22.771 -6.452 -1.655 0.700 0.700 1.000
-23.045 -6.377 -1.672 0.700 0.700 1.000
-24.223 -6.544 -1.755 0.700 0.700 1.000
-24.106 -6.354 -1.743 0.700 0.700 1.000
-24.656 -6.337 -1.780 0.700 0.700 1.000
-24.704 -6.188 -1.781 0.700 0.700 1.000
-25.645 -6.257 -1.846 0.700 0.700 1.000
-24.952 -5.926 -1.793 0.700 0.700 1.000
-24.714 -5.709 -1.774 0.700 0.700 1.000
-24.551 -5.513 -1.759 0.700 0.700 1.000
-24.567 -5.359 -1.758 0.700 0.700 1.000
-24.456 -5.177 -1.748 0.700 0.700 1.000
-24.556 -5.041 -1.753 0.700 0.700 1.000
-24.455 -4.864 -1.744 0.700 0.700 1.000
-24.379 -4.694 -1.736 0.700 0.700 1.000
-24.374 -4.538 -1.734 0.700 0.700 1.000
-24.421 -4.392 -1.735 0.700 0.700 1.000
-24.416 -4.237 -1.733 0.700 0.700 1.000
-24.452 -4.088 -1.734 0.700 0.700 1.000
-24.409 -3.927 -1.729 0.700 0.700 1.000
-24.388 -3.771 -1.726 0.700 0.700 1.000
-24.383 -3.617 -1.724 0.700 0.700 1.000
-24.390 -3.465 -1.723 0.700 0.700 1.000
-24.365 -3.309 -1.719 0.700 0.700 1.000
-24.357 -3.156 -1.717 0.700 0.700 1.000
-24.349 -3.003 -1.716 0.700 0.700 1.000
-24.379 -2.855 -1.716 0.700 0.700 1.000
-24.398 -2.706 -1.717 0.700 0.700 1.000
-24.402 -2.555 -1.716 0.700 0.700 1.000
-24.292 -2.393 -1.707 0.700 0.700 1.000
-24.294 -2.242 -1.706 0.700 0.700 1.000
-24.310 -2.093 -1.706 0.700 0.700 1.000
-24.308 -1.943 -1.705 0.700 0.700 1.000
-24.365 -1.797 -1.708 0.700 0.700 1.000
-24.412 -1.650 -1.711 0.700 0.700 1.000
-24.340 -1.495 -1.705 0.700 0.700 1.000
-24.378 -1.348 -1.707 0.700 0.700 1.000
-24.448 -1.201 -1.712 0.700 0.700 1.000
-24.375 -1.048 -1.706 0.700 0.700 1.000
-24.491 -0.902 -1.714 0.700 0.700 1.000
-24.572 -0.754 -1.719 0.700 0.700 1.000
-24.996 -0.614 -1.748 0.700 0.700 1.000
-25.211 -0.464 -1.763 0.700 0.700 1.000
-30.727 -0.377 -2.149 0.700 0.700 1.000
-30.817 -0.189 -2.155 0.700 0.700 1.000
-27.390 0.000 -2.126 0.700 0.700 1.000
-27.421 0.168 -2.128 0.700 0.700 1.000
-27.450 0.337 -2.130 0.700 0.700 1.000
-27.460 0.506 -2.131 0.700 0.700 1.000
-27.474 0.674 -2.133 0.700 0.700 1.000
-27.504 0.844 -2.135 0.700 0.700 1.000
-27.530 1.014 -2.138 0.700 0.700 1.000
-27.565 1.185 -2.141 0.700 0.700 1.000
-27.607 1.356 -2.145 0.700 0.700 1.000
-27.619 1.527 -2.147 0.700 0.700 1.000
-27.654 1.699 -2.150 0.700 0.700 1.000
-27.698 1.872 -2.154 0.700 0.700 1.000
-27.738 2.046 -2.158 0.700 0.700 1.000
-27.765 2.219 -2.162 0.700 0.700 1.000
-27.815 2.395 -2.167 0.700 0.700 1.000
-27.757 2.562 -2.163 0.700 0.700 1.000
-29.059 2.862 -2.266 0.700 0.700 1.000
-27.599 2.889 -2.153 0.700 0.700 1.000
-27.650 3.066 -2.159 0.700 0.700 1.000
-27.662 3.240 -2.161 0.700 0.700 1.000
-27.672 3.413 -2.164 0.700 0.700 1.000
-27.714 3.591 -2.169 0.700 0.700 1.000
-27.738 3.767 -2.172 0.700 0.700 1.000
-27.735 3.940 -2.174 0.700 0.700 1.000
-27.772 4.120 -2.179 0.700 0.700 1.000
-27.749 4.290 -2.179 0.700 0.700 1.000
-27.706 4.458 -2.178 0.700 0.700 1.000
-27.688 4.630 -2.179 0.700 0.700 1.000
-27.628 4.794 -2.176 0.700 0.700 1.000
-26.923 4.842 -2.123 0.700 0.700 1.000
-26.247 4.887 -2.072 0.700 0.700 1.000
-26.290 5.062 -2.078 0.700 0.700 1.000
-26.186 5.209 -2.072 0.700 0.700 1.000
-26.073 5.353 -2.066 0.700 0.700 1.000
-26.032 5.511 -2.065 0.700 0.700 1.000
-26.005 5.672 -2.066 0.700 0.700 1.000
-26.005 5.840 -2.068 0.700 0.700 1.000
-25.982 6.002 -2.069 0.700 0.700 1.000
-25.931 6.158 -2.068 0.700 0.700 1.000
-25.822 6.300 -2.063 0.700 0.700 1.000
-25.713 6.441 -2.057 0.700 0.700 1.000
-25.669 6.597 -2.057 0.700 0.700 1.000
-25.621 6.753 -2.056 0.700 0.700 1.000
-25.515 6.893 -2.051 0.700 0.700 1.000
-25.453 7.044 -2.049 0.700 0.700 1.000
-25.396 7.196 -2.048 0.700 0.700 1.000
-24.993 7.248 -2.019 0.700 0.700 1.000
-24.864 7.376 -2.013 0.700 0.700 1.000
-24.734 7.503 -2.006 0.700 0.700 1.000
-24.661 7.646 -2.004 0.700 0.700 1.000
-24.555 7.779 -1.999 0.700 0.700 1.000
-24.347 7.878 -1.986 0.700 0.700 1.000
-24.439 8.074 -1.997 0.700 0.700 1.000
-24.388 8.223 -1.997 0.700 0.700 1.000
-19.390 6.671 -1.591 0.700 0.700 1.000
-24.269 8.516 -1.996 0.700 0.700 1.000
-19.410 6.945 -1.600 0.700 0.700 1.000
-17.342 6.325 -1.433 0.700 0.700 1.000
-17.198 6.393 -1.424 0.700 0.700 1.000
-17.090 6.472 -1.418 0.700 0.700 1.000
-17.058 6.580 -1.419 0.700 0.700 1.000
-17.005 6.680 -1.418 0.700 0.700 1.000
-16.984 6.792 -1.420 0.700 0.700 1.000
-16.998 6.919 -1.424 0.700 0.700 1.000
-16.911 7.005 -1.420 0.700 0.700 1.000
-17.007 7.167 -1.432 0.700 0.700 1.000
-16.981 7.279 -1.434 0.700 0.700 1.000
-17.109 7.459 -1.448 0.700 0.700 1.000
-18.254 8.091 -1.550 0.700 0.700 1.000
-18.053 8.135 -1.537 0.700 0.700 1.000
-17.917 8.206 -1.529 0.700 0.700 1.000
-17.874 8.320 -1.530 0.700 0.700 1.000
-17.805 8.421 -1.528 0.700 0.700 1.000
-17.702 8.506 -1.524 0.700 0.700 1.000
-17.741 8.659 -1.532 0.700 0.700 1.000
-17.745 8.796 -1.537 0.700 0.700 1.000
-17.773 8.946 -1.544 0.700 0.700 1.000
-17.682 9.037 -1.541 0.700 0.700 1.000
-17.834 9.253 -1.559 0.700 0.700 1.000
-17.782 9.365 -1.560 0.700 0.700 1.000
-17.896 9.566 -1.575 0.700 0.700 1.000
-17.838 9.676 -1.575 0.700 0.700 1.000
-17.833 9.815 -1.580 0.700 0.700 1.000
-10.816 6.040 -0.961 0.700 0.700 1.000
-10.818 6.128 -0.965 0.700 0.700 1.000
-10.919 6.274 -0.977 0.700 0.700 1.000
-11.117 6.479 -0.999 0.700 0.700 1.000
-10.686 6.316 -0.963 0.700 0.700 1.000
-10.699 6.412 -0.968 0.700 0.700 1.000
-10.479 6.368 -0.952 0.700 0.700 1.000
-10.660 6.569 -0.972 0.700 0.700 1.000
-10.516 6.569 -0.962 0.700 0.700 1.000
-10.828 6.857 -0.995 0.700 0.700 1.000
-10.587 6.796 -0.976 0.700 0.700 1.000
-10.561 6.870 -0.978 0.700 0.700 1.000
-10.422 6.872 -0.969 0.700 0.700 1.000
-10.550 7.049 -0.985 0.700 0.700 1.000
-9.840 6.663 -0.922 0.700 0.700 1.000
-9.735 6.679 -0.916 0.700 0.700 1.000
-9.635 6.697 -0.911 0.700 0.700 1.000
-9.650 6.796 -0.916 0.700 0.700 1.000
-10.177 7.261 -0.970 0.700 0.700 1.000
-10.172 7.353 -0.974 0.700 0.700 1.000
-10.120 7.410 -0.973 0.700 0.700 1.000
-10.057 7.459 -0.972 0.700 0.700 1.000
-9.952 7.476 -0.966 0.700 0.700 1.000
-9.797 7.454 -0.955 0.700 0.700 1.000
-9.787 7.542 -0.959 0.700 0.700 1.000
-9.728 7.592 -0.958 0.700 0.700 1.000
-9.907 7.829 -0.980 0.700 0.700 1.000
-10.129 8.107 -1.007 0.700 0.700 1.000
-9.886 8.012 -0.987 0.700 0.700 1.000
-12.686 10.411 -1.274 0.700 0.700 1.000
-12.652 10.514 -1.277 0.700 0.700 1.000
-12.520 10.535 -1.270 0.700 0.700 1.000
-12.412 10.575 -1.265 0.700 0.700 1.000
-12.340 10.645 -1.265 0.700 0.700 1.000
-12.249 10.698 -1.262 0.700 0.700 1.000
-10.742 9.498 -1.113 0.700 0.700 1.000
-12.253 10.969 -1.276 0.700 0.700 1.000
-12.106 10.972 -1.268 0.700 0.700 1.000
-10.214 9.372 -1.076 0.700 0.700 1.000
-11.278 10.477 -1.195 0.700 0.700 1.000
-11.130 10.467 -1.186 0.700 0.700 1.000
-10.995 10.468 -1.178 0.700 0.700 1.000
-10.822 10.431 -1.166 0.700 0.700 1.000
-10.702 10.442 -1.160 0.700 0.700 1.000
-10.560 10.431 -1.152 0.700 0.700 1.000
-10.441 10.441 -1.146 0.700 0.700 1.000
-10.308 10.435 -1.138 0.700 0.700 1.000
-10.167 10.419 -1.130 0.700 0.700 1.000
-9.488 9.844 -1.061 0.700 0.700 1.000
-9.384 9.857 -1.056 0.700 0.700 1.000
-9.259 9.846 -1.049 0.700 0.700 1.000
-9.176 9.878 -1.046 0.700 0.700 1.000
-9.148 9.970 -1.050 0.700 0.700 1.000
-9.148 10.093 -1.057 0.700 0.700 1.000
-9.152 10.223 -1.065 0.700 0.700 1.000
-9.656 10.921 -1.131 0.700 0.700 1.000
-9.620 11.015 -1.135 0.700 0.700 1.000
-9.615 11.146 -1.142 0.700 0.700 1.000
-9.606 11.276 -1.150 0.700 0.700 1.000
-9.593 11.400 -1.156 0.700 0.700 1.000
-9.586 11.536 -1.164 0.700 0.700 1.000
-9.582 11.675 -1.172 0.700 0.700 1.000
-4.876 6.016 -0.601 0.700 0.700 1.000
-4.847 6.057 -0.602 0.700 0.700 1.000
-5.056 6.397 -0.633 0.700 0.700 1.000
-5.001 6.408 -0.631 0.700 0.700 1.000
-4.934 6.402 -0.627 0.700 0.700 1.000
-4.867 6.397 -0.624 0.700 0.700 1.000
-4.809 6.401 -0.621 0.700 0.700 1.000
-4.739 6.390 -0.617 0.700 0.700 1.000
-4.680 6.391 -0.615 0.700 0.700 1.000
-4.606 6.373 -0.610 0.700 0.700 1.000
-4.557 6.387 -0.609 0.700 0.700 1.000
-4.498 6.386 -0.606 0.700 0.700 1.000
-4.415 6.352 -0.600 0.700 0.700 1.000
-4.363 6.359 -0.598 0.700 0.700 1.000
-4.297 6.346 -0.595 0.700 0.700 1.000
-4.237 6.341 -0.592 0.700 0.700 1.000
-4.182 6.343 -0.590 0.700 0.700 1.000
-4.122 6.336 -0.587 0.700 0.700 1.000
-4.063 6.330 -0.584 0.700 0.700 1.000
-4.007 6.328 -0.581 0.700 0.700 1.000
-3.992 6.390 -0.585 0.700 0.700 1.000
-3.928 6.375 -0.581 0.700 0.700 1.000
-3.857 6.346 -0.576 0.700 0.700 1.000
-3.801 6.342 -0.574 0.700 0.700 1.000
-3.750 6.345 -0.572 0.700 0.700 1.000
-3.700 6.348 -0.570 0.700 0.700 1.000
-3.632 6.321 -0.566 0.700 0.700 1.000
-3.587 6.333 -0.565 0.700 0.700 1.000
-3.533 6.327 -0.562 0.700 0.700 1.000
-3.480 6.322 -0.560 0.700 0.700 1.000
-3.430 6.324 -0.558 0.700 0.700 1.000
-3.372 6.309 -0.555 0.700 0.700 1.000
-3.329 6.320 -0.554 0.700 0.700 1.000
-3.270 6.302 -0.551 0.700 0.700 1.000
-3.225 6.310 -0.550 0.700 0.700 1.000
-3.179 6.316 -0.549 0.700 0.700 1.000
-3.130 6.314 -0.547 0.700 0.700 1.000
-3.065 6.280 -0.542 0.700 0.700 1.000
-3.026 6.298 -0.542 0.700 0.700 1.000
-2.974 6.288 -0.540 0.700 0.700 1.000
-2.920 6.274 -0.537 0.700 0.700 1.000
-2.876 6.280 -0.536 0.700 0.700 1.000
-2.825 6.269 -0.534 0.700 0.700 1.000
-2.778 6.268 -0.532 0.700 0.700 1.000
-2.731 6.265 -0.530 0.700 0.700 1.000
-2.685 6.264 -0.529 0.700 0.700 1.000
-2.636 6.255 -0.527 0.700 0.700 1.000
-2.590 6.253 -0.525 0.700 0.700 1.000
-2.544 6.250 -0.524 0.700 0.700 1.000
-2.497 6.245 -0.522 0.700 0.700 1.000
-2.456 6.254 -0.521 0.700 0.700 1.000
-2.406 6.238 -0.519 0.700 0.700 1.000
-2.365 6.244 -0.518 0.700 0.700 1.000
-2.320 6.241 -0.517 0.700 0.700 1.000
-2.274 6.235 -0.515 0.700 0.700 1.000
-2.228 6.226 -0.513 0.700 0.700 1.000
-2.181 6.217 -0.511 0.700 0.700 1.000
-2.143 6.230 -0.511 0.700 0.700 1.000
-2.092 6.204 -0.508 0.700 0.700 1.000
-2.047 6.197 -0.506 0.700 0.700 1.000
-2.009 6.208 -0.506 0.700 0.700 1.000
-1.958 6.182 -0.503 0.700 0.700 1.000
-1.922 6.198 -0.504 0.700 0.700 1.000
-1.881 6.202 -0.503 0.700 0.700 1.000
-1.833 6.180 -0.500 0.700 0.700 1.000
-1.795 6.188 -0.500 0.700 0.700 1.000
-1.753 6.185 -0.499 0.700 0.700 1.000
-1.709 6.177 -0.497 0.700 0.700 1.000
-1.663 6.157 -0.495 0.700 0.700 1.000
-1.630 6.184 -0.496 0.700 0.700 1.000
-1.583 6.159 -0.493 0.700 0.700 1.000
-1.546 6.173 -0.494 0.700 0.700 1.000
-1.507 6.176 -0.493 0.700 0.700 1.000
-1.454 6.120 -0.488 0.700 0.700 1.000
-1.412 6.114 -0.487 0.700 0.700 1.000
-1.374 6.119 -0.487 0.700 0.700 1.000
-1.334 6.118 -0.486 0.700 0.700 1.000
-1.294 6.111 -0.485 0.700 0.700 1.000
-1.255 6.115 -0.484 0.700 0.700 1.000
-1.214 6.103 -0.483 0.700 0.700 1.000
-1.176 6.109 -0.483 0.700 0.700 1.000
-1.137 6.105 -0.482 0.700 0.700 1.000
-1.095 6.091 -0.480 0.700 0.700 1.000
-1.056 6.089 -0.480 0.700 0.700 1.000
-1.017 6.085 -0.479 0.700 0.700 1.000
-0.979 6.087 -0.478 0.700 0.700 1.000
-0.940 6.080 -0.477 0.700 0.700 1.000
-0.902 6.081 -0.477 0.700 0.700 1.000
-0.864 6.080 -0.477 0.700 0.700 1.000
-0.825 6.077 -0.476 0.700 0.700 1.000
-0.781 6.025 -0.471 0.700 0.700 1.000
-0.743 6.028 -0.471 0.700 0.700 1.000
-0.706 6.026 -0.471 0.700 0.700 1.000
-0.668 6.023 -0.470 0.700 0.700 1.000
-0.631 6.023 -0.470 0.700 0.700 1.000
-0.592 6.008 -0.469 0.700 0.700 1.000
-0.567 6.138 -0.478 0.700 0.700 1.000
-0.540 6.266 -0.488 0.700 0.700 1.000
-0.506 6.333 -0.493 0.700 0.700 1.000
-0.468 6.342 -0.494 0.700 0.700 1.000
-0.428 6.331 -0.492 0.700 0.700 1.000
-0.389 6.324 -0.492 0.700 0.700 1.000
-0.347 6.282 -0.488 0.700 0.700 1.000
-0.311 6.326 -0.491 0.700 0.700 1.000
-0.270 6.275 -0.487 0.700 0.700 1.000
-0.231 6.275 -0.487 0.700 0.700 1.000
-0.194 6.313 -0.490 0.700 0.700 1.000
-0.155 6.314 -0.490 0.700 0.700 1.000
-0.116 6.308 -0.490 0.700 0.700 1.000
-0.077 6.279 -0.487 0.700 0.700 1.000
-0.039 6.283 -0.488 0.700 0.700 1.000
0.000 6.291 -0.488 0.700 0.700 1.000
0.039 6.279 -0.487 0.700 0.700 1.000
0.077 6.289 -0.488 0.700 0.700 1.000
0.116 6.276 -0.487 0.700 0.700 1.000
0.154 6.267 -0.487 0.700 0.700 1.000
0.194 6.309 -0.490 0.700 0.700 1.000
0.232 6.306 -0.490 0.700 0.700 1.000
0.270 6.283 -0.488 0.700 0.700 1.000
0.308 6.269 -0.487 0.700 0.700 1.000
0.347 6.272 -0.487 0.700 0.700 1.000
0.385 6.269 -0.487 0.700 0.700 1.000
0.424 6.267 -0.487 0.700 0.700 1.000
0.462 6.258 -0.487 0.700 0.700 1.000
0.500 6.257 -0.487 0.700 0.700 1.000
0.538 6.248 -0.487 0.700 0.700 1.000
0.577 6.256 -0.488 0.700 0.700 1.000
0.616 6.253 -0.488 0.700 0.700 1.000
0.646 6.172 -0.482 0.700 0.700 1.000
0.658 5.932 -0.463 0.700 0.700 1.000
0.693 5.918 -0.462 0.700 0.700 1.000
0.730 5.915 -0.463 0.700 0.700 1.000
0.767 5.917 -0.463 0.700 0.700 1.000
0.804 5.918 -0.463 0.700 0.700 1.000
0.841 5.916 -0.464 0.700 0.700 1.000
0.876 5.907 -0.463 0.700 0.700 1.000
0.899 5.814 -0.457 0.700 0.700 1.000
0.944 5.865 -0.461 0.700 0.700 1.000
0.964 5.765 -0.454 0.700 0.700 1.000
1.016 5.853 -0.461 0.700 0.700 1.000
1.053 5.854 -0.462 0.700 0.700 1.000
1.090 5.855 -0.462 0.700 0.700 1.000
1.128 5.859 -0.463 0.700 0.700 1.000
1.167 5.867 -0.464 0.700 0.700 1.000
1.202 5.854 -0.464 0.700 0.700 1.000
1.239 5.853 -0.464 0.700 0.700 1.000
1.277 5.853 -0.465 0.700 0.700 1.000
1.315 5.856 -0.466 0.700 0.700 1.000
1.351 5.849 -0.466 0.700 0.700 1.000
1.390 5.853 -0.467 0.700 0.700 1.000
1.428 5.854 -0.468 0.700 0.700 1.000
1.464 5.843 -0.467 0.700 0.700 1.000
1.503 5.846 -0.468 0.700 0.700 1.000
1.542 5.852 -0.470 0.700 0.700 1.000
1.579 5.847 -0.470 0.700 0.700 1.000
1.618 5.846 -0.471 0.700 0.700 1.000
1.655 5.842 -0.471 0.700 0.700 1.000
1.697 5.851 -0.473 0.700 0.700 1.000
1.733 5.842 -0.473 0.700 0.700 1.000
1.771 5.837 -0.473 0.700 0.700 1.000
1.812 5.843 -0.475 0.700 0.700 1.000
1.847 5.830 -0.475 0.700 0.700 1.000
1.886 5.830 -0.476 0.700 0.700 1.000
1.930 5.841 -0.477 0.700 0.700 1.000
1.968 5.837 -0.478 0.700 0.700 1.000
2.006 5.832 -0.479 0.700 0.700 1.000
2.047 5.834 -0.480 0.700 0.700 1.000
2.088 5.835 -0.481 0.700 0.700 1.000
2.127 5.832 -0.482 0.700 0.700 1.000
2.166 5.827 -0.482 0.700 0.700 1.000
2.208 5.831 -0.484 0.700 0.700 1.000
2.245 5.820 -0.484 0.700 0.700 1.000
2.285 5.818 -0.485 0.700 0.700 1.000
2.329 5.825 -0.487 0.700 0.700 1.000
2.366 5.813 -0.487 0.700 0.700 1.000
2.407 5.810 -0.488 0.700 0.700 1.000
2.460 5.837 -0.492 0.700 0.700 1.000
2.498 5.828 -0.492 0.700 0.700 1.000
2.541 5.830 -0.494 0.700 0.700 1.000
2.582 5.825 -0.494 0.700 0.700 1.000
2.623 5.822 -0.496 0.700 0.700 1.000
2.664 5.816 -0.496 0.700 0.700 1.000
2.703 5.807 -0.497 0.700 0.700 1.000
2.751 5.817 -0.499 0.700 0.700 1.000
2.792 5.811 -0.500 0.700 0.700 1.000
2.831 5.801 -0.501 0.700 0.700 1.000
2.878 5.805 -0.503 0.700 0.700 1.000
2.924 5.809 -0.505 0.700 0.700 1.000
2.963 5.798 -0.505 0.700 0.700 1.000
3.012 5.806 -0.508 0.700 0.700 1.000
3.056 5.802 -0.509 0.700 0.700 1.000
3.099 5.799 -0.510 0.700 0.700 1.000
3.138 5.784 -0.511 0.700 0.700 1.000
3.185 5.788 -0.513 0.700 0.700 1.000
3.224 5.773 -0.513 0.700 0.700 1.000
3.270 5.773 -0.515 0.700 0.700 1.000
3.313 5.766 -0.516 0.700 0.700 1.000
3.358 5.762 -0.518 0.700 0.700 1.000
3.403 5.758 -0.519 0.700 0.700 1.000
3.450 5.756 -0.521 0.700 0.700 1.000
3.509 5.774 -0.524 0.700 0.700 1.000
3.554 5.767 -0.526 0.700 0.700 1.000
3.599 5.761 -0.527 0.700 0.700 1.000
3.650 5.764 -0.529 0.700 0.700 1.000
3.695 5.756 -0.531 0.700 0.700 1.000
3.746 5.758 -0.533 0.700 0.700 1.000
3.793 5.752 -0.535 0.700 0.700 1.000
3.840 5.747 -0.536 0.700 0.700 1.000
3.895 5.753 -0.539 0.700 0.700 1.000
3.953 5.762 -0.542 0.700 0.700 1.000
4.002 5.757 -0.544 0.700 0.700 1.000
4.057 5.760 -0.547 0.700 0.700 1.000
4.103 5.750 -0.548 0.700 0.700 1.000
4.152 5.744 -0.550 0.700 0.700 1.000
4.207 5.746 -0.553 0.700 0.700 1.000
4.262 5.747 -0.555 0.700 0.700 1.000
4.308 5.735 -0.557 0.700 0.700 1.000
4.350 5.718 -0.558 0.700 0.700 1.000
4.418 5.734 -0.562 0.700 0.700 1.000
4.471 5.729 -0.564 0.700 0.700 1.000
4.517 5.715 -0.565 0.700 0.700 1.000
4.853 5.696 -0.581 0.700 0.700 1.000
4.914 5.696 -0.584 0.700 0.700 1.000
4.971 5.691 -0.586 0.700 0.700 1.000
5.029 5.687 -0.589 0.700 0.700 1.000
5.088 5.683 -0.592 0.700 0.700 1.000
5.141 5.672 -0.594 0.700 0.700 1.000
5.197 5.664 -0.597 0.700 0.700 1.000
5.269 5.672 -0.601 0.700 0.700 1.000
5.337 5.675 -0.605 0.700 0.700 1.000
5.389 5.661 -0.607 0.700 0.700 1.000
5.453 5.657 -0.610 0.700 0.700 1.000
5.529 5.666 -0.614 0.700 0.700 1.000
5.595 5.664 -0.618 0.700 0.700 1.000
5.665 5.665 -0.622 0.700 0.700 1.000
5.735 5.665 -0.626 0.700 0.700 1.000
5.805 5.664 -0.629 0.700 0.700 1.000
5.875 5.663 -0.633 0.700 0.700 1.000
5.950 5.665 -0.638 0.700 0.700 1.000
6.039 5.679 -0.643 0.700 0.700 1.000
6.086 5.654 -0.645 0.700 0.700 1.000
6.157 5.649 -0.648 0.700 0.700 1.000
6.230 5.646 -0.652 0.700 0.700 1.000
6.317 5.655 -0.658 0.700 0.700 1.000
6.388 5.649 -0.662 0.700 0.700 1.000
6.479 5.659 -0.668 0.700 0.700 1.000
6.549 5.649 -0.671 0.700 0.700 1.000
6.630 5.649 -0.676 0.700 0.700 1.000
6.682 5.622 -0.678 0.700 0.700 1.000
6.773 5.629 -0.683 0.700 0.700 1.000
6.860 5.630 -0.689 0.700 0.700 1.000
6.937 5.622 -0.693 0.700 0.700 1.000
7.031 5.627 -0.699 0.700 0.700 1.000
7.116 5.624 -0.704 0.700 0.700 1.000
7.199 5.618 -0.709 0.700 0.700 1.000
7.279 5.609 -0.713 0.700 0.700 1.000
7.365 5.604 -0.718 0.700 0.700 1.000
7.449 5.596 -0.723 0.700 0.700 1.000
7.546 5.596 -0.729 0.700 0.700 1.000
7.629 5.586 -0.734 0.700 0.700 1.000
7.721 5.580 -0.739 0.700 0.700 1.000
7.819 5.579 -0.745 0.700 0.700 1.000
7.914 5.574 -0.751 0.700 0.700 1.000
8.025 5.579 -0.758 0.700 0.700 1.000
8.119 5.570 -0.764 0.700 0.700 1.000
8.217 5.563 -0.770 0.700 0.700 1.000
8.316 5.557 -0.776 0.700 0.700 1.000
8.440 5.565 -0.784 0.700 0.700 1.000
8.539 5.555 -0.791 0.700 0.700 1.000
8.542 5.483 -0.788 0.700 0.700 1.000
8.580 5.433 -0.788 0.700 0.700 1.000
8.872 5.542 -0.812 0.700 0.700 1.000
9.000 5.545 -0.820 0.700 0.700 1.000
9.119 5.542 -0.828 0.700 0.700 1.000
9.521 5.706 -0.861 0.700 0.700 1.000
9.638 5.697 -0.869 0.700 0.700 1.000
9.693 5.649 -0.871 0.700 0.700 1.000
9.916 5.698 -0.888 0.700 0.700 1.000
9.935 5.628 -0.886 0.700 0.700 1.000
10.166 5.677 -0.904 0.700 0.700 1.000
10.233 5.632 -0.906 0.700 0.700 1.000
10.391 5.636 -0.917 0.700 0.700 1.000
10.526 5.626 -0.926 0.700 0.700 1.000
10.550 5.556 -0.925 0.700 0.700 1.000
10.589 5.494 -0.926 0.700 0.700 1.000
10.741 5.490 -0.936 0.700 0.700 1.000
10.882 5.477 -0.945 0.700 0.700 1.000
11.038 5.471 -0.956 0.700 0.700 1.000
11.180 5.457 -0.965 0.700 0.700 1.000
11.342 5.450 -0.977 0.700 0.700 1.000
11.510 5.444 -0.988 0.700 0.700 1.000
11.665 5.430 -0.998 0.700 0.700 1.000
11.828 5.418 -1.010 0.700 0.700 1.000
12.010 5.412 -1.022 0.700 0.700 1.000
12.229 5.421 -1.038 0.700 0.700 1.000
12.410 5.410 -1.051 0.700 0.700 1.000
12.606 5.404 -1.064 0.700 0.700 1.000
12.780 5.386 -1.076 0.700 0.700 1.000
12.966 5.371 -1.089 0.700 0.700 1.000
13.177 5.363 -1.104 0.700 0.700 1.000
13.368 5.346 -1.117 0.700 0.700 1.000
13.541 5.319 -1.129 0.700 0.700 1.000
13.771 5.312 -1.145 0.700 0.700 1.000
13.982 5.295 -1.160 0.700 0.700 1.000
14.327 5.326 -1.186 0.700 0.700 1.000
14.532 5.300 -1.200 0.700 0.700 1.000
14.835 5.308 -1.223 0.700 0.700 1.000
15.099 5.298 -1.242 0.700 0.700 1.000
15.343 5.278 -1.259 0.700 0.700 1.000
15.669 5.283 -1.283 0.700 0.700 1.000
16.243 5.366 -1.328 0.700 0.700 1.000
16.535 5.350 -1.349 0.700 0.700 1.000
16.836 5.334 -1.371 0.700 0.700 1.000
17.318 5.370 -1.407 0.700 0.700 1.000
17.663 5.358 -1.432 0.700 0.700 1.000
17.971 5.331 -1.455 0.700 0.700 1.000
18.151 5.264 -1.467 0.700 0.700 1.000
18.200 5.157 -1.468 0.700 0.700 1.000
18.531 5.128 -1.492 0.700 0.700 1.000
19.434 5.250 -1.562 0.700 0.700 1.000
19.846 5.231 -1.593 0.700 0.700 1.000
20.250 5.205 -1.623 0.700 0.700 1.000
20.688 5.182 -1.655 0.700 0.700 1.000
21.373 5.214 -1.707 0.700 0.700 1.000
21.819 5.182 -1.740 0.700 0.700 1.000
22.315 5.155 -1.777 0.700 0.700 1.000
22.821 5.125 -1.815 0.700 0.700 1.000
23.304 5.083 -1.851 0.700 0.700 1.000
23.537 4.983 -1.867 0.700 0.700 1.000
24.091 4.946 -1.909 0.700 0.700 1.000
24.680 4.909 -1.953 0.700 0.700 1.000
25.333 4.878 -2.002 0.700 0.700 1.000
25.985 4.838 -2.051 0.700 0.700 1.000
25.987 4.674 -2.049 0.700 0.700 1.000
25.986 4.509 -2.047 0.700 0.700 1.000
25.993 4.346 -2.045 0.700 0.700 1.000
25.958 4.177 -2.040 0.700 0.700 1.000
25.916 4.007 -2.035 0.700 0.700 1.000
25.842 3.833 -2.027 0.700 0.700 1.000
25.774 3.662 -2.020 0.700 0.700 1.000
25.757 3.498 -2.017 0.700 0.700 1.000
25.732 3.334 -2.014 0.700 0.700 1.000
25.697 3.169 -2.009 0.700 0.700 1.000
26.470 3.100 -2.068 0.700 0.700 1.000
26.810 2.973 -2.093 0.700 0.700 1.000
26.676 2.793 -2.082 0.700 0.700 1.000
26.555 2.615 -2.071 0.700 0.700 1.000
26.471 2.443 -2.063 0.700 0.700 1.000
26.312 2.266 -2.050 0.700 0.700 1.000
26.191 2.094 -2.039 0.700 0.700 1.000
26.109 1.926 -2.032 0.700 0.700 1.000
26.115 1.765 -2.031 0.700 0.700 1.000
26.056 1.601 -2.026 0.700 0.700 1.000
25.828 1.428 -2.007 0.700 0.700 1.000
25.651 1.260 -1.993 0.700 0.700 1.000
25.501 1.096 -1.981 0.700 0.700 1.000
25.342 0.933 -1.968 0.700 0.700 1.000
25.230 0.774 -1.959 0.700 0.700 1.000
25.090 0.616 -1.948 0.700 0.700 1.000
24.950 0.459 -1.937 0.700 0.700 1.000
24.820 0.305 -1.926 0.700 0.700 1.000
24.689 0.151 -1.916 0.700 0.700 1.000
24.573 -0.000 -1.907 0.700 0.700 1.000
11.977 -0.073 -0.929 0.700 0.700 1.000
11.938 -0.147 -0.927 0.700 0.700 1.000
11.862 -0.218 -0.921 0.700 0.700 1.000
11.842 -0.291 -0.919 0.700 0.700 1.000
11.812 -0.362 -0.917 0.700 0.700 1.000
11.768 -0.433 -0.914 0.700 0.700 1.000
11.757 -0.505 -0.913 0.700 0.700 1.000
11.744 -0.577 -0.912 0.700 0.700 1.000
11.729 -0.648 -0.912 0.700 0.700 1.000
11.720 -0.720 -0.911 0.700 0.700 1.000
11.709 -0.791 -0.911 0.700 0.700 1.000
11.742 -0.866 -0.914 0.700 0.700 1.000
11.710 -0.936 -0.912 0.700 0.700 1.000
11.708 -1.008 -0.912 0.700 0.700 1.000
11.708 -1.081 -0.912 0.700 0.700 1.000
11.705 -1.153 -0.913 0.700 0.700 1.000
11.717 -1.227 -0.914 0.700 0.700 1.000
11.718 -1.299 -0.915 0.700 0.700 1.000
11.818 -1.384 -0.923 0.700 0.700 1.000
11.938 -1.472 -0.933 0.700 0.700 1.000
11.905 -1.543 -0.932 0.700 0.700 1.000
11.919 -1.619 -0.933 0.700 0.700 1.000
12.199 -1.733 -0.956 0.700 0.700 1.000
20.356 -3.020 -1.597 0.700 0.700 1.000
20.226 -3.127 -1.588 0.700 0.700 1.000
20.076 -3.230 -1.578 0.700 0.700 1.000
19.727 -3.298 -1.552 0.700 0.700 1.000
19.671 -3.413 -1.549 0.700 0.700 1.000
18.879 -3.395 -1.489 0.700 0.700 1.000
18.070 -3.364 -1.426 0.700 0.700 1.000
17.377 -3.346 -1.373 0.700 0.700 1.000
16.673 -3.317 -1.319 0.700 0.700 1.000
16.073 -3.300 -1.273 0.700 0.700 1.000
15.465 -3.274 -1.227 0.700 0.700 1.000
14.909 -3.252 -1.184 0.700 0.700 1.000
14.375 -3.228 -1.143 0.700 0.700 1.000
13.685 -3.161 -1.090 0.700 0.700 1.000
13.292 -3.157 -1.060 0.700 0.700 1.000
12.900 -3.147 -1.030 0.700 0.700 1.000
12.492 -3.129 -0.999 0.700 0.700 1.000
12.115 -3.114 -0.971 0.700 0.700 1.000
11.832 -3.119 -0.950 0.700 0.700 1.000
11.549 -3.120 -0.928 0.700 0.700 1.000
11.516 -3.187 -0.927 0.700 0.700 1.000
11.472 -3.251 -0.925 0.700 0.700 1.000
11.139 -3.230 -0.900 0.700 0.700 1.000
10.933 -3.243 -0.885 0.700 0.700 1.000
10.591 -3.213 -0.859 0.700 0.700 1.000
10.317 -3.199 -0.838 0.700 0.700 1.000
10.103 -3.201 -0.822 0.700 0.700 1.000
9.898 -3.203 -0.807 0.700 0.700 1.000
9.657 -3.190 -0.789 0.700 0.700 1.000
9.456 -3.188 -0.774 0.700 0.700 1.000
9.219 -3.172 -0.757 0.700 0.700 1.000
9.064 -3.181 -0.745 0.700 0.700 1.000
8.871 -3.174 -0.731 0.700 0.700 1.000
8.640 -3.151 -0.714 0.700 0.700 1.000
8.458 -3.144 -0.700 0.700 0.700 1.000
8.301 -3.144 -0.689 0.700 0.700 1.000
8.151 -3.144 -0.678 0.700 0.700 1.000
7.951 -3.123 -0.663 0.700 0.700 1.000
7.801 -3.120 -0.652 0.700 0.700 1.000
7.704 -3.136 -0.645 0.700 0.700 1.000
7.539 -3.123 -0.633 0.700 0.700 1.000
7.330 -3.089 -0.617 0.700 0.700 1.000
7.240 -3.104 -0.611 0.700 0.700 1.000
7.078 -3.086 -0.599 0.700 0.700 1.000
6.942 -3.077 -0.589 0.700 0.700 1.000
6.781 -3.056 -0.577 0.700 0.700 1.000
6.766 -3.099 -0.578 0.700 0.700 1.000
6.630 -3.086 -0.567 0.700 0.700 1.000
6.509 -3.079 -0.559 0.700 0.700 1.000
6.399 -3.074 -0.551 0.700 0.700 1.000
6.314 -3.081 -0.545 0.700 0.700 1.000
6.201 -3.074 -0.537 0.700 0.700 1.000
6.103 -3.072 -0.530 0.700 0.700 1.000
6.000 -3.066 -0.523 0.700 0.700 1.000
5.884 -3.053 -0.514 0.700 0.700 1.000
5.837 -3.074 -0.512 0.700 0.700 1.000
5.695 -3.044 -0.501 0.700 0.700 1.000
5.613 -3.044 -0.496 0.700 0.700 1.000
5.552 -3.056 -0.492 0.700 0.700 1.000
5.437 -3.036 -0.483 0.700 0.700 1.000
5.404 -3.061 -0.482 0.700 0.700 1.000
4.669 -2.877 -0.426 0.700 0.700 1.000
4.597 -2.872 -0.421 0.700 0.700 1.000
4.507 -2.854 -0.414 0.700 0.700 1.000
4.464 -2.865 -0.412 0.700 0.700 1.000
4.408 -2.868 -0.408 0.700 0.700 1.000
4.347 -2.866 -0.404 0.700 0.700 1.000
4.300 -2.873 -0.401 0.700 0.700 1.000
4.298 -2.910 -0.403 0.700 0.700 1.000
4.287 -2.941 -0.403 0.700 0.700 1.000
4.284 -2.978 -0.405 0.700 0.700 1.000
4.283 -3.016 -0.407 0.700 0.700 1.000
4.279 -3.053 -0.408 0.700 0.700 1.000
4.257 -3.077 -0.408 0.700 0.700 1.000
4.236 -3.102 -0.407 0.700 0.700 1.000
4.253 -3.154 -0.411 0.700 0.700 1.000
4.857 -3.649 -0.471 0.700 0.700 1.000
4.849 -3.689 -0.473 0.700 0.700 1.000
4.799 -3.698 -0.470 0.700 0.700 1.000
4.190 -3.270 -0.412 0.700 0.700 1.000
4.847 -3.831 -0.479 0.700 0.700 1.000
4.837 -3.872 -0.481 0.700 0.700 1.000
4.818 -3.905 -0.481 0.700 0.700 1.000
4.170 -3.422 -0.419 0.700 0.700 1.000
4.204 -3.493 -0.424 0.700 0.700 1.000
4.836 -4.069 -0.490 0.700 0.700 1.000
4.810 -4.098 -0.490 0.700 0.700 1.000
4.095 -3.533 -0.420 0.700 0.700 1.000
4.846 -4.232 -0.499 0.700 0.700 1.000
4.822 -4.264 -0.500 0.700 0.700 1.000
3.302 -2.956 -0.344 0.700 0.700 1.000
3.264 -2.959 -0.342 0.700 0.700 1.000
3.215 -2.950 -0.339 0.700 0.700 1.000
3.169 -2.944 -0.336 0.700 0.700 1.000
3.188 -2.998 -0.340 0.700 0.700 1.000
3.158 -3.006 -0.338 0.700 0.700 1.000
3.107 -2.995 -0.335 0.700 0.700 1.000
3.105 -3.029 -0.337 0.700 0.700 1.000
3.958 -3.910 -0.432 0.700 0.700 1.000
3.939 -3.939 -0.432 0.700 0.700 1.000
2.964 -3.001 -0.327 0.700 0.700 1.000
2.935 -3.008 -0.326 0.700 0.700 1.000
4.813 -4.993 -0.538 0.700 0.700 1.000
4.824 -5.066 -0.543 0.700 0.700 1.000
2.829 -3.009 -0.321 0.700 0.700 1.000
5.125 -5.517 -0.584 0.700 0.700 1.000
5.060 -5.514 -0.581 0.700 0.700 1.000
5.011 -5.529 -0.579 0.700 0.700 1.000
2.653 -3.000 -0.311 0.700 0.700 1.000
2.578 -3.026 -0.308 0.700 0.700 1.000
2.557 -3.039 -0.308 0.700 0.700 1.000
2.468 -3.007 -0.302 0.700 0.700 1.000
2.434 -3.004 -0.300 0.700 0.700 1.000
2.411 -3.012 -0.299 0.700 0.700 1.000
2.388 -3.022 -0.299 0.700 0.700 1.000
2.344 -3.004 -0.296 0.700 0.700 1.000
2.322 -3.013 -0.295 0.700 0.700 1.000
2.289 -3.009 -0.293 0.700 0.700 1.000
2.260 -3.008 -0.292 0.700 0.700 1.000
2.237 -3.016 -0.291 0.700 0.700 1.000
2.204 -3.010 -0.289 0.700 0.700 1.000
2.173 -3.007 -0.288 0.700 0.700 1.000
2.150 -3.014 -0.287 0.700 0.700 1.000
2.122 -3.013 -0.286 0.700 0.700 1.000
2.088 -3.004 -0.284 0.700 0.700 1.000
2.047 -2.984 -0.281 0.700 0.700 1.000
4.923 -7.271 -0.681 0.700 0.700 1.000
4.880 -7.303 -0.682 0.700 0.700 1.000
4.854 -7.362 -0.684 0.700 0.700 1.000
1.946 -2.992 -0.277 0.700 0.700 1.000
1.916 -2.985 -0.275 0.700 0.700 1.000
1.893 -2.990 -0.275 0.700 0.700 1.000
1.870 -2.993 -0.274 0.700 0.700 1.000
1.850 -3.003 -0.274 0.700 0.700 1.000
5.066 -8.336 -0.757 0.700 0.700 1.000
5.025 -8.384 -0.759 0.700 0.700 1.000
4.952 -8.378 -0.755 0.700 0.700 1.000
4.891 -8.391 -0.754 0.700 0.700 1.000
1.737 -3.022 -0.270 0.700 0.700 1.000
1.717 -3.031 -0.270 0.700 0.700 1.000
1.686 -3.020 -0.268 0.700 0.700 1.000
4.770 -8.666 -0.768 0.700 0.700 1.000
4.798 -8.846 -0.781 0.700 0.700 1.000
4.745 -8.877 -0.781 0.700 0.700 1.000
4.698 -8.921 -0.782 0.700 0.700 1.000
1.557 -3.001 -0.262 0.700 0.700 1.000
1.543 -3.019 -0.263 0.700 0.700 1.000
4.532 -9.004 -0.782 0.700 0.700 1.000
4.465 -9.008 -0.780 0.700 0.700 1.000
4.420 -9.057 -0.782 0.700 0.700 1.000
4.355 -9.064 -0.780 0.700 0.700 1.000
1.419 -3.000 -0.258 0.700 0.700 1.000
1.400 -3.007 -0.257 0.700 0.700 1.000
4.146 -9.052 -0.773 0.700 0.700 1.000
4.079 -9.052 -0.771 0.700 0.700 1.000
4.017 -9.063 -0.769 0.700 0.700 1.000
3.964 -9.092 -0.770 0.700 0.700 1.000
1.277 -2.979 -0.252 0.700 0.700 1.000
1.262 -2.994 -0.252 0.700 0.700 1.000
3.784 -9.136 -0.767 0.700 0.700 1.000
3.725 -9.151 -0.767 0.700 0.700 1.000
3.664 -9.161 -0.766 0.700 0.700 1.000
3.604 -9.174 -0.765 0.700 0.700 1.000
3.537 -9.170 -0.763 0.700 0.700 1.000
3.471 -9.166 -0.761 0.700 0.700 1.000
1.106 -2.974 -0.246 0.700 0.700 1.000
3.345 -9.170 -0.757 0.700 0.700 1.000
3.278 -9.162 -0.755 0.700 0.700 1.000
3.198 -9.114 -0.750 0.700 0.700 1.000
3.140 -9.128 -0.749 0.700 0.700 1.000
3.084 -9.146 -0.749 0.700 0.700 1.000
0.999 -3.025 -0.247 0.700 0.700 1.000
0.968 -2.993 -0.244 0.700 0.700 1.000
2.903 -9.162 -0.746 0.700 0.700 1.000
2.843 -9.169 -0.745 0.700 0.700 1.000
2.777 -9.155 -0.742 0.700 0.700 1.000
2.723 -9.178 -0.743 0.700 0.700 1.000
2.662 -9.178 -0.742 0.700 0.700 1.000
2.603 -9.186 -0.741 0.700 0.700 1.000
0.825 -2.980 -0.240 0.700 0.700 1.000
2.486 -9.203 -0.740 0.700 0.700 1.000
2.427 -9.210 -0.739 0.700 0.700 1.000
2.369 -9.217 -0.739 0.700 0.700 1.000
2.314 -9.236 -0.739 0.700 0.700 1.000
2.255 -9.244 -0.738 0.700 0.700 1.000
2.196 -9.249 -0.738 0.700 0.700 1.000
0.690 -2.985 -0.238 0.700 0.700 1.000
0.662 -2.949 -0.235 0.700 0.700 1.000
0.625 -2.863 -0.227 0.700 0.700 1.000
0.590 -2.786 -0.221 0.700 0.700 1.000
0.569 -2.774 -0.220 0.700 0.700 1.000
0.552 -2.773 -0.219 0.700 0.700 1.000
0.532 -2.765 -0.219 0.700 0.700 1.000
0.515 -2.768 -0.218 0.700 0.700 1.000
0.499 -2.773 -0.219 0.700 0.700 1.000
0.484 -2.788 -0.220 0.700 0.700 1.000
0.466 -2.789 -0.219 0.700 0.700 1.000
0.445 -2.769 -0.218 0.700 0.700 1.000
0.428 -2.767 -0.217 0.700 0.700 1.000
0.410 -2.761 -0.217 0.700 0.700 1.000
0.390 -2.743 -0.215 0.700 0.700 1.000
0.375 -2.764 -0.216 0.700 0.700 1.000
0.358 -2.763 -0.216 0.700 0.700 1.000
0.342 -2.773 -0.217 0.700 0.700 1.000
0.324 -2.771 -0.216 0.700 0.700 1.000
0.305 -2.753 -0.215 0.700 0.700 1.000
0.290 -2.773 -0.216 0.700 0.700 1.000
0.275 -2.796 -0.218 0.700 0.700 1.000
0.255 -2.758 -0.215 0.700 0.700 1.000
0.238 -2.762 -0.215 0.700 0.700 1.000
0.223 -2.791 -0.217 0.700 0.700 1.000
0.204 -2.766 -0.215 0.700 0.700 1.000
0.186 -2.758 -0.215 0.700 0.700 1.000
0.179 -2.915 -0.227 0.700 0.700 1.000
0.340 -6.917 -0.537 0.700 0.700 1.000
0.298 -6.945 -0.539 0.700 0.700 1.000
0.414 -11.237 -0.873 0.700 0.700 1.000
0.345 -11.236 -0.872 0.700 0.700 1.000
0.276 -11.232 -0.872 0.700 0.700 1.000
0.207 -11.231 -0.872 0.700 0.700 1.000
0.138 -11.229 -0.871 0.700 0.700 1.000
0.071 -11.534 -0.895 0.700 0.700 1.000
0.000 -11.714 -0.909 0.700 0.700 1.000
-0.074 -12.042 -0.935 0.700 0.700 1.000
-0.147 -12.016 -0.933 0.700 0.700 1.000
-0.221 -12.019 -0.933 0.700 0.700 1.000
-0.295 -12.017 -0.933 0.700 0.700 1.000
-0.369 -12.009 -0.932 0.700 0.700 1.000
-0.442 -11.991 -0.931 0.700 0.700 1.000
-0.514 -11.964 -0.929 0.700 0.700 1.000
-0.587 -11.940 -0.928 0.700 0.700 1.000
-0.659 -11.919 -0.926 0.700 0.700 1.000
-0.731 -11.901 -0.925 0.700 0.700 1.000
-0.802 -11.869 -0.923 0.700 0.700 1.000
-0.874 -11.855 -0.922 0.700 0.700 1.000
-0.947 -11.841 -0.922 0.700 0.700 1.000
-1.017 -11.805 -0.920 0.700 0.700 1.000
-1.089 -11.797 -0.919 0.700 0.700 1.000
-1.160 -11.782 -0.919 0.700 0.700 1.000
-1.232 -11.767 -0.918 0.700 0.700 1.000
-1.303 -11.749 -0.917 0.700 0.700 1.000
-1.375 -11.741 -0.917 0.700 0.700 1.000
-1.447 -11.730 -0.917 0.700 0.700 1.000
-1.517 -11.706 -0.916 0.700 0.700 1.000
-1.587 -11.686 -0.915 0.700 0.700 1.000
-1.659 -11.678 -0.915 0.700 0.700 1.000
-1.726 -11.637 -0.913 0.700 0.700 1.000
-1.796 -11.616 -0.912 0.700 0.700 1.000
-1.866 -11.599 -0.912 0.700 0.700 1.000
-1.935 -11.573 -0.911 0.700 0.700 1.000
-2.002 -11.539 -0.909 0.700 0.700 1.000
-2.071 -11.517 -0.908 0.700 0.700 1.000
-2.140 -11.494 -0.907 0.700 0.700 1.000
-2.208 -11.467 -0.906 0.700 0.700 1.000
-2.279 -11.455 -0.906 0.700 0.700 1.000
-2.351 -11.453 -0.907 0.700 0.700 1.000
-2.372 -11.204 -0.889 0.700 0.700 1.000
-2.420 -11.096 -0.881 0.700 0.700 1.000
-2.485 -11.065 -0.880 0.700 0.700 1.000
-2.507 -10.851 -0.864 0.700 0.700 1.000
-2.579 -10.861 -0.866 0.700 0.700 1.000
-2.648 -10.855 -0.867 0.700 0.700 1.000
-2.683 -10.710 -0.857 0.700 0.700 1.000
-2.759 -10.733 -0.860 0.700 0.700 1.000
-2.857 -10.839 -0.870 0.700 0.700 1.000
-2.928 -10.841 -0.871 0.700 0.700 1.000
-2.999 -10.838 -0.873 0.700 0.700 1.000
-3.164 -11.166 -0.901 0.700 0.700 1.000
-3.621 -12.486 -1.009 0.700 0.700 1.000
-3.658 -12.331 -0.998 0.700 0.700 1.000
-3.735 -12.314 -0.999 0.700 0.700 1.000
-3.813 -12.299 -0.999 0.700 0.700 1.000
-3.893 -12.290 -1.000 0.700 0.700 1.000
-3.976 -12.287 -1.002 0.700 0.700 1.000
-4.053 -12.270 -1.003 0.700 0.700 1.000
-4.130 -12.249 -1.003 0.700 0.700 1.000
-4.197 -12.200 -1.001 0.700 0.700 1.000
-4.255 -12.126 -0.997 0.700 0.700 1.000
-4.211 -11.769 -0.970 0.700 0.700 1.000
-4.054 -11.115 -0.918 0.700 0.700 1.000
-4.106 -11.046 -0.914 0.700 0.700 1.000
-4.178 -11.032 -0.916 0.700 0.700 1.000
-3.015 -7.816 -0.650 0.700 0.700 1.000
-3.073 -7.822 -0.652 0.700 0.700 1.000
-4.471 -11.181 -0.935 0.700 0.700 1.000
