4.799 -0.592 -1.653 0.700 0.700 1.000
4.797 -0.622 -1.654 0.700 0.700 1.000
4.805 -0.653 -1.658 0.700 0.700 1.000
4.805 -0.683 -1.659 0.700 0.700 1.000
4.795 -0.711 -1.657 0.700 0.700 1.000
4.792 -0.741 -1.658 0.700 0.700 1.000
4.780 -0.769 -1.655 0.700 0.700 1.000
4.782 -0.800 -1.658 0.700 0.700 1.000
4.784 -0.830 -1.660 0.700 0.700 1.000
4.770 -0.858 -1.657 0.700 0.700 1.000
4.758 -0.886 -1.655 0.700 0.700 1.000
4.765 -0.917 -1.659 0.700 0.700 1.000
4.761 -0.947 -1.660 0.700 0.700 1.000
4.755 -0.976 -1.660 0.700 0.700 1.000
4.751 -1.006 -1.660 0.700 0.700 1.000
4.730 -1.032 -1.655 0.700 0.700 1.000
4.738 -1.064 -1.660 0.700 0.700 1.000
4.734 -1.094 -1.661 0.700 0.700 1.000
4.732 -1.124 -1.663 0.700 0.700 1.000
4.717 -1.151 -1.660 0.700 0.700 1.000
4.715 -1.181 -1.662 0.700 0.700 1.000
4.711 -1.211 -1.663 0.700 0.700 1.000
4.697 -1.238 -1.661 0.700 0.700 1.000
4.694 -1.268 -1.662 0.700 0.700 1.000
4.688 -1.297 -1.663 0.700 0.700 1.000
4.676 -1.325 -1.662 0.700 0.700 1.000
4.669 -1.354 -1.662 0.700 0.700 1.000
4.674 -1.387 -1.667 0.700 0.700 1.000
4.651 -1.411 -1.662 0.700 0.700 1.000
4.642 -1.439 -1.662 0.700 0.700 1.000
4.644 -1.471 -1.666 0.700 0.700 1.000
4.626 -1.497 -1.662 0.700 0.700 1.000
4.619 -1.526 -1.663 0.700 0.700 1.000
4.624 -1.559 -1.668 0.700 0.700 1.000
4.598 -1.582 -1.662 0.700 0.700 1.000
4.582 -1.608 -1.660 0.700 0.700 1.000
4.581 -1.639 -1.664 0.700 0.700 1.000
4.571 -1.667 -1.664 0.700 0.700 1.000
4.562 -1.696 -1.664 0.700 0.700 1.000
4.545 -1.721 -1.662 0.700 0.700 1.000
4.549 -1.755 -1.667 0.700 0.700 1.000
4.534 -1.781 -1.666 0.700 0.700 1.000
4.525 -1.810 -1.666 0.700 0.700 1.000
4.514 -1.837 -1.666 0.700 0.700 1.000
4.504 -1.865 -1.667 0.700 0.700 1.000
4.487 -1.891 -1.665 0.700 0.700 1.000
4.477 -1.919 -1.665 0.700 0.700 1.000
4.473 -1.950 -1.668 0.700 0.700 1.000
4.453 -1.974 -1.665 0.700 0.700 1.000
4.445 -2.003 -1.667 0.700 0.700 1.000
4.440 -2.034 -1.670 0.700 0.700 1.000
4.427 -2.061 -1.670 0.700 0.700 1.000
4.431 -2.096 -1.676 0.700 0.700 1.000
4.401 -2.115 -1.669 0.700 0.700 1.000
4.383 -2.139 -1.667 0.700 0.700 1.000
4.368 -2.165 -1.667 0.700 0.700 1.000
4.349 -2.189 -1.665 0.700 0.700 1.000
4.344 -2.220 -1.668 0.700 0.700 1.000
4.331 -2.247 -1.668 0.700 0.700 1.000
4.335 -2.283 -1.675 0.700 0.700 1.000
4.308 -2.303 -1.670 0.700 0.700 1.000
4.307 -2.336 -1.675 0.700 0.700 1.000
4.298 -2.366 -1.677 0.700 0.700 1.000
4.278 -2.389 -1.675 0.700 0.700 1.000
4.268 -2.418 -1.677 0.700 0.700 1.000
4.244 -2.438 -1.673 0.700 0.700 1.000
4.220 -2.460 -1.670 0.700 0.700 1.000
4.213 -2.490 -1.673 0.700 0.700 1.000
4.196 -2.515 -1.672 0.700 0.700 1.000
4.184 -2.543 -1.674 0.700 0.700 1.000
4.162 -2.564 -1.671 0.700 0.700 1.000
4.149 -2.592 -1.673 0.700 0.700 1.000
4.127 -2.613 -1.670 0.700 0.700 1.000
4.122 -2.646 -1.674 0.700 0.700 1.000
4.098 -2.666 -1.672 0.700 0.700 1.000
4.084 -2.693 -1.673 0.700 0.700 1.000
4.066 -2.717 -1.672 0.700 0.700 1.000
4.046 -2.740 -1.671 0.700 0.700 1.000
4.050 -2.779 -1.679 0.700 0.700 1.000
4.021 -2.795 -1.674 0.700 0.700 1.000
4.002 -2.818 -1.673 0.700 0.700 1.000
3.986 -2.844 -1.674 0.700 0.700 1.000
3.984 -2.879 -1.681 0.700 0.700 1.000
3.950 -2.892 -1.674 0.700 0.700 1.000
3.934 -2.918 -1.674 0.700 0.700 1.000
3.916 -2.942 -1.675 0.700 0.700 1.000
3.912 -2.976 -1.680 0.700 0.700 1.000
3.892 -2.999 -1.680 0.700 0.700 1.000
3.876 -3.025 -1.681 0.700 0.700 1.000
3.862 -3.052 -1.683 0.700 0.700 1.000
3.852 -3.083 -1.687 0.700 0.700 1.000
3.839 -3.111 -1.689 0.700 0.700 1.000
3.878 -3.183 -1.715 0.700 0.700 1.000
3.799 -3.157 -1.689 0.700 0.700 1.000
3.816 -3.211 -1.705 0.700 0.700 1.000
3.854 -3.283 -1.731 0.700 0.700 1.000
3.828 -3.302 -1.728 0.700 0.700 1.000
3.804 -3.323 -1.727 0.700 0.700 1.000
1.183 -1.046 -0.540 0.700 0.700 1.000
1.164 -1.042 -0.534 0.700 0.700 1.000
1.180 -1.069 -0.544 0.700 0.700 1.000
1.175 -1.078 -0.545 0.700 0.700 1.000
1.158 -1.076 -0.541 0.700 0.700 1.000
1.150 -1.081 -0.540 0.700 0.700 1.000
3.485 -3.706 -1.739 0.700 0.700 1.000
3.460 -3.724 -1.738 0.700 0.700 1.000
3.445 -3.754 -1.742 0.700 0.700 1.000
3.432 -3.786 -1.747 0.700 0.700 1.000
3.413 -3.813 -1.750 0.700 0.700 1.000
3.383 -3.826 -1.746 0.700 0.700 1.000
3.097 -3.546 -1.610 0.700 0.700 1.000
3.111 -3.607 -1.629 0.700 0.700 1.000
3.017 -3.541 -1.591 0.700 0.700 1.000
2.897 -3.442 -1.538 0.700 0.700 1.000
2.902 -3.492 -1.552 0.700 0.700 1.000
2.863 -3.533 -1.555 0.700 0.700 1.000
2.839 -3.548 -1.554 0.700 0.700 1.000
2.820 -3.568 -1.555 0.700 0.700 1.000
2.824 -3.618 -1.569 0.700 0.700 1.000
2.840 -3.686 -1.591 0.700 0.700 1.000
2.745 -3.607 -1.550 0.700 0.700 1.000
2.710 -3.607 -1.543 0.700 0.700 1.000
2.945 -3.971 -1.690 0.700 0.700 1.000
3.114 -4.252 -1.802 0.700 0.700 1.000
3.095 -4.281 -1.806 0.700 0.700 1.000
3.116 -4.368 -1.834 0.700 0.700 1.000
4.889 -7.034 -2.929 0.700 0.700 1.000
4.831 -7.041 -2.919 0.700 0.700 1.000
4.756 -7.024 -2.900 0.700 0.700 1.000
4.702 -7.037 -2.894 0.700 0.700 1.000
4.648 -7.050 -2.887 0.700 0.700 1.000
4.568 -7.021 -2.864 0.700 0.700 1.000
4.523 -7.046 -2.863 0.700 0.700 1.000
4.473 -7.064 -2.859 0.700 0.700 1.000
1.090 -1.745 -0.703 0.700 0.700 1.000
1.080 -1.753 -0.704 0.700 0.700 1.000
1.069 -1.759 -0.704 0.700 0.700 1.000
1.062 -1.771 -0.706 0.700 0.700 1.000
1.034 -1.750 -0.695 0.700 0.700 1.000
3.859 -7.012 -2.736 0.700 0.700 1.000
3.820 -7.043 -2.739 0.700 0.700 1.000
0.478 -3.220 -1.113 0.700 0.700 1.000
0.469 -3.299 -1.139 0.700 0.700 1.000
0.443 -3.262 -1.126 0.700 0.700 1.000
0.417 -3.221 -1.110 0.700 0.700 1.000
0.398 -3.224 -1.110 0.700 0.700 1.000
0.385 -3.284 -1.130 0.700 0.700 1.000
0.367 -3.311 -1.139 0.700 0.700 1.000
0.348 -3.323 -1.142 0.700 0.700 1.000
0.335 -3.398 -1.167 0.700 0.700 1.000
0.307 -3.331 -1.144 0.700 0.700 1.000
0.280 -3.255 -1.117 0.700 0.700 1.000
0.261 -3.270 -1.122 0.700 0.700 1.000
0.241 -3.267 -1.120 0.700 0.700 1.000
0.220 -3.256 -1.116 0.700 0.700 1.000
0.200 -3.263 -1.118 0.700 0.700 1.000
0.181 -3.268 -1.119 0.700 0.700 1.000
0.159 -3.229 -1.105 0.700 0.700 1.000
0.141 -3.274 -1.120 0.700 0.700 1.000
0.121 -3.282 -1.123 0.700 0.700 1.000
0.102 -3.313 -1.133 0.700 0.700 1.000
0.081 -3.306 -1.130 0.700 0.700 1.000
0.062 -3.366 -1.151 0.700 0.700 1.000
0.041 -3.346 -1.144 0.700 0.700 1.000
0.020 -3.335 -1.140 0.700 0.700 1.000
0.000 -3.362 -1.149 0.700 0.700 1.000
-0.020 -3.325 -1.137 0.700 0.700 1.000
-0.041 -3.343 -1.143 0.700 0.700 1.000
-0.063 -3.417 -1.169 0.700 0.700 1.000
-0.086 -3.489 -1.193 0.700 0.700 1.000
-0.108 -3.508 -1.200 0.700 0.700 1.000
-0.129 -3.490 -1.194 0.700 0.700 1.000
-0.150 -3.495 -1.196 0.700 0.700 1.000
-0.170 -3.469 -1.188 0.700 0.700 1.000
-0.195 -3.529 -1.208 0.700 0.700 1.000
-0.216 -3.510 -1.202 0.700 0.700 1.000
-0.237 -3.505 -1.201 0.700 0.700 1.000
-0.259 -3.511 -1.204 0.700 0.700 1.000
-0.284 -3.553 -1.219 0.700 0.700 1.000
-0.305 -3.543 -1.216 0.700 0.700 1.000
-0.330 -3.581 -1.229 0.700 0.700 1.000
-0.342 -3.468 -1.191 0.700 0.700 1.000
-0.361 -3.449 -1.186 0.700 0.700 1.000
-0.391 -3.522 -1.211 0.700 0.700 1.000
-0.562 -4.797 -1.651 0.700 0.700 1.000
-0.592 -4.803 -1.655 0.700 0.700 1.000
-0.623 -4.807 -1.657 0.700 0.700 1.000
-0.650 -4.788 -1.652 0.700 0.700 1.000
-0.680 -4.788 -1.653 0.700 0.700 1.000
-0.711 -4.793 -1.656 0.700 0.700 1.000
-0.737 -4.768 -1.649 0.700 0.700 1.000
-0.770 -4.787 -1.658 0.700 0.700 1.000
-0.799 -4.781 -1.657 0.700 0.700 1.000
-0.831 -4.787 -1.661 0.700 0.700 1.000
-0.859 -4.774 -1.658 0.700 0.700 1.000
-0.889 -4.776 -1.661 0.700 0.700 1.000
-0.918 -4.769 -1.660 0.700 0.700 1.000
-0.948 -4.767 -1.662 0.700 0.700 1.000
-0.979 -4.770 -1.665 0.700 0.700 1.000
-1.007 -4.757 -1.662 0.700 0.700 1.000
-1.037 -4.756 -1.664 0.700 0.700 1.000
-1.069 -4.762 -1.669 0.700 0.700 1.000
-1.098 -4.754 -1.668 0.700 0.700 1.000
-1.127 -4.745 -1.668 0.700 0.700 1.000
-1.159 -4.751 -1.672 0.700 0.700 1.000
-1.191 -4.755 -1.676 0.700 0.700 1.000
-1.220 -4.747 -1.676 0.700 0.700 1.000
-1.250 -4.744 -1.677 0.700 0.700 1.000
-1.279 -4.734 -1.677 0.700 0.700 1.000
-1.306 -4.720 -1.674 0.700 0.700 1.000
-1.338 -4.723 -1.678 0.700 0.700 1.000
-1.371 -4.728 -1.683 0.700 0.700 1.000
-1.398 -4.714 -1.681 0.700 0.700 1.000
-1.431 -4.716 -1.685 0.700 0.700 1.000
-1.459 -4.705 -1.684 0.700 0.700 1.000
-1.488 -4.698 -1.685 0.700 0.700 1.000
-1.521 -4.700 -1.689 0.700 0.700 1.000
-1.549 -4.690 -1.689 0.700 0.700 1.000
-1.583 -4.695 -1.694 0.700 0.700 1.000
-1.610 -4.681 -1.693 0.700 0.700 1.000
-1.640 -4.674 -1.693 0.700 0.700 1.000
-1.671 -4.669 -1.695 0.700 0.700 1.000
-1.702 -4.667 -1.699 0.700 0.700 1.000
-1.734 -4.664 -1.701 0.700 0.700 1.000
-1.761 -4.651 -1.700 0.700 0.700 1.000
-1.798 -4.661 -1.708 0.700 0.700 1.000
-1.828 -4.653 -1.709 0.700 0.700 1.000
-1.855 -4.639 -1.708 0.700 0.700 1.000
-1.887 -4.635 -1.711 0.700 0.700 1.000
-1.914 -4.621 -1.710 0.700 0.700 1.000
-1.941 -4.606 -1.709 0.700 0.700 1.000
-1.973 -4.602 -1.712 0.700 0.700 1.000
-2.002 -4.592 -1.713 0.700 0.700 1.000
-2.034 -4.588 -1.716 0.700 0.700 1.000
-2.065 -4.582 -1.718 0.700 0.700 1.000
-2.097 -4.579 -1.722 0.700 0.700 1.000
-2.124 -4.564 -1.721 0.700 0.700 1.000
-2.157 -4.561 -1.725 0.700 0.700 1.000
-2.188 -4.553 -1.727 0.700 0.700 1.000
-2.219 -4.546 -1.730 0.700 0.700 1.000
-2.246 -4.531 -1.729 0.700 0.700 1.000
-2.272 -4.514 -1.728 0.700 0.700 1.000
-2.307 -4.514 -1.733 0.700 0.700 1.000
-2.337 -4.504 -1.735 0.700 0.700 1.000
-2.370 -4.499 -1.739 0.700 0.700 1.000
-2.403 -4.495 -1.743 0.700 0.700 1.000
-2.431 -4.482 -1.743 0.700 0.700 1.000
-2.458 -4.467 -1.743 0.700 0.700 1.000
-2.489 -4.458 -1.746 0.700 0.700 1.000
-2.525 -4.458 -1.752 0.700 0.700 1.000
-2.548 -4.434 -1.748 0.700 0.700 1.000
-2.581 -4.428 -1.752 0.700 0.700 1.000
-2.617 -4.428 -1.759 0.700 0.700 1.000
-2.645 -4.413 -1.759 0.700 0.700 1.000
-2.673 -4.398 -1.759 0.700 0.700 1.000
-2.705 -4.391 -1.763 0.700 0.700 1.000
-2.740 -4.387 -1.768 0.700 0.700 1.000
-2.770 -4.375 -1.770 0.700 0.700 1.000
-2.798 -4.359 -1.771 0.700 0.700 1.000
-2.833 -4.354 -1.776 0.700 0.700 1.000
-2.865 -4.345 -1.779 0.700 0.700 1.000
-2.881 -4.312 -1.773 0.700 0.700 1.000
-2.916 -4.306 -1.778 0.700 0.700 1.000
-2.956 -4.309 -1.787 0.700 0.700 1.000
-2.977 -4.283 -1.783 0.700 0.700 1.000
-3.016 -4.283 -1.791 0.700 0.700 1.000
-3.053 -4.280 -1.797 0.700 0.700 1.000
-3.076 -4.256 -1.795 0.700 0.700 1.000
-3.117 -4.257 -1.804 0.700 0.700 1.000
-3.145 -4.241 -1.805 0.700 0.700 1.000
-3.175 -4.226 -1.807 0.700 0.700 1.000
-3.202 -4.208 -1.808 0.700 0.700 1.000
-3.230 -4.192 -1.809 0.700 0.700 1.000
-3.259 -4.176 -1.811 0.700 0.700 1.000
-3.299 -4.174 -1.819 0.700 0.700 1.000
-3.329 -4.159 -1.821 0.700 0.700 1.000
-3.368 -4.155 -1.829 0.700 0.700 1.000
-3.396 -4.139 -1.830 0.700 0.700 1.000
-3.435 -4.134 -1.838 0.700 0.700 1.000
-3.462 -4.114 -1.838 0.700 0.700 1.000
-3.482 -4.087 -1.836 0.700 0.700 1.000
-3.508 -4.067 -1.836 0.700 0.700 1.000
-3.548 -4.063 -1.844 0.700 0.700 1.000
-3.574 -4.042 -1.845 0.700 0.700 1.000
-3.600 -4.022 -1.845 0.700 0.700 1.000
-3.628 -4.003 -1.847 0.700 0.700 1.000
-3.645 -3.973 -1.843 0.700 0.700 1.000
-3.668 -3.949 -1.843 0.700 0.700 1.000
-3.695 -3.929 -1.844 0.700 0.700 1.000
-3.722 -3.909 -1.845 0.700 0.700 1.000
-3.745 -3.885 -1.845 0.700 0.700 1.000
-3.768 -3.862 -1.845 0.700 0.700 1.000
-3.771 -3.817 -1.834 0.700 0.700 1.000
-3.794 -3.794 -1.834 0.700 0.700 1.000
-3.822 -3.776 -1.837 0.700 0.700 1.000
-3.833 -3.740 -1.831 0.700 0.700 1.000
-3.868 -3.728 -1.837 0.700 0.700 1.000
-3.897 -3.710 -1.840 0.700 0.700 1.000
-3.913 -3.680 -1.836 0.700 0.700 1.000
-3.925 -3.646 -1.832 0.700 0.700 1.000
-3.948 -3.622 -1.832 0.700 0.700 1.000
-3.964 -3.593 -1.829 0.700 0.700 1.000
-3.987 -3.569 -1.829 0.700 0.700 1.000
-4.011 -3.547 -1.831 0.700 0.700 1.000
-4.027 -3.517 -1.828 0.700 0.700 1.000
-4.062 -3.504 -1.834 0.700 0.700 1.000
-4.067 -3.465 -1.827 0.700 0.700 1.000
-4.089 -3.441 -1.827 0.700 0.700 1.000
-4.112 -3.417 -1.828 0.700 0.700 1.000
-4.133 -3.392 -1.828 0.700 0.700 1.000
-4.152 -3.365 -1.827 0.700 0.700 1.000
-4.175 -3.342 -1.828 0.700 0.700 1.000
-4.187 -3.309 -1.825 0.700 0.700 1.000
-4.219 -3.292 -1.830 0.700 0.700 1.000
-4.230 -3.260 -1.826 0.700 0.700 1.000
-4.250 -3.234 -1.826 0.700 0.700 1.000
-4.267 -3.205 -1.825 0.700 0.700 1.000
-4.294 -3.185 -1.828 0.700 0.700 1.000
-4.300 -3.148 -1.822 0.700 0.700 1.000
-4.327 -3.128 -1.825 0.700 0.700 1.000
-4.343 -3.099 -1.824 0.700 0.700 1.000
-4.365 -3.074 -1.825 0.700 0.700 1.000
-4.390 -3.052 -1.828 0.700 0.700 1.000
-4.410 -3.026 -1.829 0.700 0.700 1.000
-4.421 -2.993 -1.825 0.700 0.700 1.000
-4.448 -2.972 -1.829 0.700 0.700 1.000
-4.458 -2.940 -1.826 0.700 0.700 1.000
-4.477 -2.912 -1.826 0.700 0.700 1.000
-4.498 -2.887 -1.827 0.700 0.700 1.000
-4.510 -2.856 -1.825 0.700 0.700 1.000
-4.517 -2.822 -1.821 0.700 0.700 1.000
-4.546 -2.801 -1.825 0.700 0.700 1.000
-4.561 -2.772 -1.825 0.700 0.700 1.000
-4.576 -2.743 -1.824 0.700 0.700 1.000
-4.590 -2.713 -1.823 0.700 0.700 1.000
-4.614 -2.689 -1.826 0.700 0.700 1.000
-4.631 -2.661 -1.826 0.700 0.700 1.000
-4.642 -2.630 -1.824 0.700 0.700 1.000
-4.655 -2.599 -1.823 0.700 0.700 1.000
-4.663 -2.566 -1.820 0.700 0.700 1.000
-4.701 -2.550 -1.828 0.700 0.700 1.000
-4.692 -2.508 -1.819 0.700 0.700 1.000
-4.727 -2.490 -1.827 0.700 0.700 1.000
-4.749 -2.464 -1.829 0.700 0.700 1.000
-4.760 -2.433 -1.828 0.700 0.700 1.000
-4.758 -2.395 -1.821 0.700 0.700 1.000
-4.782 -2.370 -1.825 0.700 0.700 1.000
-4.798 -2.342 -1.825 0.700 0.700 1.000
-4.814 -2.313 -1.826 0.700 0.700 1.000
-4.807 -2.274 -1.818 0.700 0.700 1.000
-4.836 -2.251 -1.824 0.700 0.700 1.000
-4.724 2.025 -1.801 0.700 0.700 1.000
-4.685 2.043 -1.791 0.700 0.700 1.000
-4.676 2.073 -1.792 0.700 0.700 1.000
-4.664 2.102 -1.793 0.700 0.700 1.000
-4.653 2.131 -1.793 0.700 0.700 1.000
-4.634 2.157 -1.791 0.700 0.700 1.000
-4.615 2.183 -1.789 0.700 0.700 1.000
-4.604 2.212 -1.790 0.700 0.700 1.000
-4.578 2.234 -1.785 0.700 0.700 1.000
-4.559 2.260 -1.783 0.700 0.700 1.000
-4.550 2.290 -1.785 0.700 0.700 1.000
-4.536 2.318 -1.785 0.700 0.700 1.000
-4.520 2.345 -1.785 0.700 0.700 1.000
-4.508 2.374 -1.785 0.700 0.700 1.000
-4.492 2.401 -1.785 0.700 0.700 1.000
-4.478 2.429 -1.785 0.700 0.700 1.000
-4.456 2.453 -1.783 0.700 0.700 1.000
-4.438 2.478 -1.781 0.700 0.700 1.000
-4.415 2.501 -1.778 0.700 0.700 1.000
-4.415 2.537 -1.785 0.700 0.700 1.000
-4.399 2.564 -1.784 0.700 0.700 1.000
-4.397 2.599 -1.790 0.700 0.700 1.000
-4.370 2.619 -1.785 0.700 0.700 1.000
-4.361 2.651 -1.789 0.700 0.700 1.000
-4.337 2.672 -1.785 0.700 0.700 1.000
-4.300 2.686 -1.777 0.700 0.700 1.000
-4.286 2.714 -1.778 0.700 0.700 1.000
-4.276 2.745 -1.781 0.700 0.700 1.000
-4.261 2.772 -1.781 0.700 0.700 1.000
-4.250 2.802 -1.784 0.700 0.700 1.000
-4.237 2.831 -1.786 0.700 0.700 1.000
-4.220 2.857 -1.786 0.700 0.700 1.000
-4.192 2.876 -1.781 0.700 0.700 1.000
-4.157 2.890 -1.774 0.700 0.700 1.000
-4.142 2.917 -1.775 0.700 0.700 1.000
-4.131 2.948 -1.779 0.700 0.700 1.000
-4.113 2.973 -1.779 0.700 0.700 1.000
-4.099 3.001 -1.780 0.700 0.700 1.000
-4.074 3.022 -1.778 0.700 0.700 1.000
-4.067 3.055 -1.783 0.700 0.700 1.000
-4.048 3.080 -1.783 0.700 0.700 1.000
-4.023 3.100 -1.780 0.700 0.700 1.000
-3.998 3.120 -1.777 0.700 0.700 1.000
-3.975 3.141 -1.775 0.700 0.700 1.000
-3.955 3.165 -1.775 0.700 0.700 1.000
-3.956 3.206 -1.785 0.700 0.700 1.000
-3.921 3.217 -1.777 0.700 0.700 1.000
-3.902 3.243 -1.778 0.700 0.700 1.000
-3.887 3.270 -1.780 0.700 0.700 1.000
-3.863 3.292 -1.779 0.700 0.700 1.000
-3.853 3.324 -1.783 0.700 0.700 1.000
-3.829 3.344 -1.781 0.700 0.700 1.000
-3.817 3.375 -1.785 0.700 0.700 1.000
-3.794 3.396 -1.784 0.700 0.700 1.000
-3.775 3.421 -1.785 0.700 0.700 1.000
-3.741 3.433 -1.779 0.700 0.700 1.000
-3.735 3.470 -1.787 0.700 0.700 1.000
-3.719 3.498 -1.789 0.700 0.700 1.000
-3.692 3.515 -1.786 0.700 0.700 1.000
-3.673 3.541 -1.788 0.700 0.700 1.000
-3.648 3.559 -1.786 0.700 0.700 1.000
-3.627 3.582 -1.786 0.700 0.700 1.000
-3.589 3.589 -1.779 0.700 0.700 1.000
-3.577 3.621 -1.784 0.700 0.700 1.000
-3.559 3.648 -1.786 0.700 0.700 1.000
-3.524 3.656 -1.779 0.700 0.700 1.000
-3.510 3.687 -1.784 0.700 0.700 1.000
-3.498 3.719 -1.789 0.700 0.700 1.000
-3.461 3.725 -1.782 0.700 0.700 1.000
-3.443 3.752 -1.784 0.700 0.700 1.000
-3.424 3.778 -1.787 0.700 0.700 1.000
-3.406 3.804 -1.789 0.700 0.700 1.000
-3.383 3.826 -1.790 0.700 0.700 1.000
-3.349 3.834 -1.784 0.700 0.700 1.000
-3.338 3.870 -1.791 0.700 0.700 1.000
-3.305 3.879 -1.786 0.700 0.700 1.000
-3.280 3.898 -1.785 0.700 0.700 1.000
-3.259 3.922 -1.787 0.700 0.700 1.000
-0.922 1.138 -0.513 0.700 0.700 1.000
-3.059 4.020 -1.770 0.700 0.700 1.000
-3.039 4.046 -1.773 0.700 0.700 1.000
-3.009 4.057 -1.770 0.700 0.700 1.000
-2.976 4.065 -1.766 0.700 0.700 1.000
-2.971 4.110 -1.777 0.700 0.700 1.000
-2.947 4.130 -1.778 0.700 0.700 1.000
-2.912 4.134 -1.772 0.700 0.700 1.000
-2.881 4.144 -1.769 0.700 0.700 1.000
-2.842 4.143 -1.761 0.700 0.700 1.000
-2.807 4.146 -1.755 0.700 0.700 1.000
-2.790 4.176 -1.760 0.700 0.700 1.000
-2.748 4.168 -1.750 0.700 0.700 1.000
-2.722 4.185 -1.750 0.700 0.700 1.000
-2.689 4.190 -1.745 0.700 0.700 1.000
-2.673 4.221 -1.751 0.700 0.700 1.000
-2.632 4.213 -1.741 0.700 0.700 1.000
-2.611 4.238 -1.744 0.700 0.700 1.000
-2.579 4.244 -1.740 0.700 0.700 1.000
-2.551 4.256 -1.739 0.700 0.700 1.000
-2.512 4.251 -1.730 0.700 0.700 1.000
-2.491 4.274 -1.734 0.700 0.700 1.000
-2.449 4.262 -1.723 0.700 0.700 1.000
-2.420 4.272 -1.720 0.700 0.700 1.000
-2.389 4.278 -1.717 0.700 0.700 1.000
-2.356 4.281 -1.713 0.700 0.700 1.000
-2.327 4.291 -1.711 0.700 0.700 1.000
-2.296 4.295 -1.707 0.700 0.700 1.000
-2.266 4.304 -1.704 0.700 0.700 1.000
-2.241 4.319 -1.705 0.700 0.700 1.000
-2.212 4.328 -1.703 0.700 0.700 1.000
-2.187 4.345 -1.705 0.700 0.700 1.000
-2.164 4.365 -1.707 0.700 0.700 1.000
-2.129 4.363 -1.701 0.700 0.700 1.000
-2.102 4.376 -1.701 0.700 0.700 1.000
-2.068 4.373 -1.695 0.700 0.700 1.000
-2.038 4.379 -1.693 0.700 0.700 1.000
-2.011 4.390 -1.692 0.700 0.700 1.000
-1.982 4.399 -1.691 0.700 0.700 1.000
-1.953 4.405 -1.689 0.700 0.700 1.000
-1.921 4.407 -1.685 0.700 0.700 1.000
-1.888 4.405 -1.679 0.700 0.700 1.000
-1.857 4.406 -1.675 0.700 0.700 1.000
-1.826 4.408 -1.672 0.700 0.700 1.000
-1.791 4.400 -1.665 0.700 0.700 1.000
-1.762 4.406 -1.663 0.700 0.700 1.000
-1.738 4.426 -1.666 0.700 0.700 1.000
-1.711 4.436 -1.666 0.700 0.700 1.000
-1.685 4.448 -1.667 0.700 0.700 1.000
-1.654 4.450 -1.664 0.700 0.700 1.000
-1.624 4.453 -1.661 0.700 0.700 1.000
-1.597 4.463 -1.661 0.700 0.700 1.000
-1.564 4.458 -1.656 0.700 0.700 1.000
-1.538 4.471 -1.657 0.700 0.700 1.000
-1.512 4.484 -1.658 0.700 0.700 1.000
-1.488 4.504 -1.662 0.700 0.700 1.000
-1.451 4.483 -1.651 0.700 0.700 1.000
-1.427 4.504 -1.656 0.700 0.700 1.000
-1.392 4.489 -1.647 0.700 0.700 1.000
-1.365 4.500 -1.648 0.700 0.700 1.000
-1.336 4.503 -1.646 0.700 0.700 1.000
-1.308 4.510 -1.646 0.700 0.700 1.000
-1.277 4.505 -1.641 0.700 0.700 1.000
-1.250 4.517 -1.643 0.700 0.700 1.000
-1.222 4.525 -1.642 0.700 0.700 1.000
-1.187 4.505 -1.633 0.700 0.700 1.000
-1.165 4.532 -1.640 0.700 0.700 1.000
-1.135 4.532 -1.637 0.700 0.700 1.000
-1.103 4.520 -1.631 0.700 0.700 1.000
-1.073 4.519 -1.628 0.700 0.700 1.000
-1.049 4.541 -1.633 0.700 0.700 1.000
-1.021 4.545 -1.633 0.700 0.700 1.000
-0.991 4.544 -1.630 0.700 0.700 1.000
-0.965 4.560 -1.633 0.700 0.700 1.000
-0.942 4.587 -1.641 0.700 0.700 1.000
-0.914 4.593 -1.641 0.700 0.700 1.000
-0.884 4.593 -1.639 0.700 0.700 1.000
-0.854 4.585 -1.634 0.700 0.700 1.000
-0.829 4.607 -1.640 0.700 0.700 1.000
-0.801 4.616 -1.642 0.700 0.700 1.000
-0.770 4.607 -1.637 0.700 0.700 1.000
-0.741 4.607 -1.635 0.700 0.700 1.000
-0.705 4.563 -1.618 0.700 0.700 1.000
-0.685 4.619 -1.636 0.700 0.700 1.000
-0.655 4.612 -1.633 0.700 0.700 1.000
-0.630 4.637 -1.640 0.700 0.700 1.000
-0.600 4.629 -1.636 0.700 0.700 1.000
-0.571 4.629 -1.635 0.700 0.700 1.000
-0.543 4.638 -1.637 0.700 0.700 1.000
-0.513 4.622 -1.630 0.700 0.700 1.000
-0.486 4.639 -1.634 0.700 0.700 1.000
-0.454 4.613 -1.624 0.700 0.700 1.000
-0.426 4.611 -1.623 0.700 0.700 1.000
-0.398 4.619 -1.625 0.700 0.700 1.000
-0.371 4.638 -1.630 0.700 0.700 1.000
-0.343 4.655 -1.636 0.700 0.700 1.000
-0.315 4.661 -1.637 0.700 0.700 1.000
-0.287 4.669 -1.639 0.700 0.700 1.000
-0.257 4.648 -1.631 0.700 0.700 1.000
-0.227 4.620 -1.621 0.700 0.700 1.000
-0.199 4.628 -1.623 0.700 0.700 1.000
-0.170 4.623 -1.621 0.700 0.700 1.000
-0.137 4.458 -1.563 0.700 0.700 1.000
-0.114 4.640 -1.627 0.700 0.700 1.000
-0.085 4.641 -1.627 0.700 0.700 1.000
-0.057 4.647 -1.629 0.700 0.700 1.000
-0.029 4.645 -1.628 0.700 0.700 1.000
0.000 4.647 -1.629 0.700 0.700 1.000
0.028 4.643 -1.627 0.700 0.700 1.000
0.057 4.649 -1.629 0.700 0.700 1.000
0.086 4.645 -1.628 0.700 0.700 1.000
0.114 4.650 -1.630 0.700 0.700 1.000
0.143 4.669 -1.637 0.700 0.700 1.000
0.172 4.661 -1.634 0.700 0.700 1.000
0.200 4.662 -1.635 0.700 0.700 1.000
0.227 4.626 -1.623 0.700 0.700 1.000
0.256 4.640 -1.628 0.700 0.700 1.000
0.286 4.655 -1.634 0.700 0.700 1.000
0.314 4.643 -1.631 0.700 0.700 1.000
0.342 4.630 -1.627 0.700 0.700 1.000
0.367 4.591 -1.614 0.700 0.700 1.000
0.399 4.633 -1.630 0.700 0.700 1.000
0.430 4.656 -1.639 0.700 0.700 1.000
0.459 4.657 -1.640 0.700 0.700 1.000
0.485 4.637 -1.634 0.700 0.700 1.000
0.513 4.628 -1.632 0.700 0.700 1.000
0.543 4.640 -1.637 0.700 0.700 1.000
0.572 4.634 -1.636 0.700 0.700 1.000
0.602 4.648 -1.642 0.700 0.700 1.000
0.633 4.659 -1.648 0.700 0.700 1.000
0.660 4.648 -1.645 0.700 0.700 1.000
0.686 4.623 -1.638 0.700 0.700 1.000
0.715 4.622 -1.639 0.700 0.700 1.000
0.748 4.651 -1.651 0.700 0.700 1.000
0.775 4.637 -1.648 0.700 0.700 1.000
0.801 4.617 -1.642 0.700 0.700 1.000
0.831 4.622 -1.646 0.700 0.700 1.000
0.860 4.618 -1.646 0.700 0.700 1.000
0.890 4.621 -1.649 0.700 0.700 1.000
0.916 4.604 -1.645 0.700 0.700 1.000
0.943 4.595 -1.644 0.700 0.700 1.000
0.971 4.589 -1.644 0.700 0.700 1.000
1.002 4.595 -1.648 0.700 0.700 1.000
1.031 4.590 -1.648 0.700 0.700 1.000
1.057 4.574 -1.645 0.700 0.700 1.000
1.085 4.568 -1.645 0.700 0.700 1.000
1.113 4.561 -1.645 0.700 0.700 1.000
1.144 4.567 -1.650 0.700 0.700 1.000
1.101 4.283 -1.550 0.700 0.700 1.000
1.126 4.271 -1.548 0.700 0.700 1.000
1.151 4.259 -1.546 0.700 0.700 1.000
1.177 4.251 -1.546 0.700 0.700 1.000
1.277 4.505 -1.641 0.700 0.700 1.000
1.336 4.606 -1.681 0.700 0.700 1.000
1.370 4.619 -1.689 0.700 0.700 1.000
1.402 4.621 -1.692 0.700 0.700 1.000
1.436 4.631 -1.699 0.700 0.700 1.000
1.473 4.649 -1.709 0.700 0.700 1.000
1.503 4.646 -1.711 0.700 0.700 1.000
1.537 4.653 -1.717 0.700 0.700 1.000
1.568 4.650 -1.720 0.700 0.700 1.000
1.599 4.648 -1.722 0.700 0.700 1.000
1.632 4.652 -1.728 0.700 0.700 1.000
1.657 4.632 -1.724 0.700 0.700 1.000
1.684 4.617 -1.722 0.700 0.700 1.000
1.708 4.595 -1.718 0.700 0.700 1.000
1.732 4.572 -1.713 0.700 0.700 1.000
1.759 4.559 -1.712 0.700 0.700 1.000
1.791 4.559 -1.716 0.700 0.700 1.000
1.910 4.381 -1.675 0.700 0.700 1.000
1.975 4.455 -1.708 0.700 0.700 1.000
2.001 4.440 -1.707 0.700 0.700 1.000
2.030 4.433 -1.709 0.700 0.700 1.000
2.055 4.415 -1.707 0.700 0.700 1.000
2.086 4.410 -1.710 0.700 0.700 1.000
2.112 4.395 -1.709 0.700 0.700 1.000
2.133 4.369 -1.704 0.700 0.700 1.000
2.158 4.353 -1.703 0.700 0.700 1.000
2.185 4.342 -1.703 0.700 0.700 1.000
2.110 4.128 -1.625 0.700 0.700 1.000
1.974 3.805 -1.502 0.700 0.700 1.000
1.986 3.771 -1.494 0.700 0.700 1.000
2.005 3.750 -1.490 0.700 0.700 1.000
2.021 3.727 -1.486 0.700 0.700 1.000
2.054 3.732 -1.493 0.700 0.700 1.000
2.090 3.742 -1.502 0.700 0.700 1.000
2.107 3.719 -1.498 0.700 0.700 1.000
2.161 3.761 -1.520 0.700 0.700 1.000
2.431 4.171 -1.692 0.700 0.700 1.000
2.451 4.147 -1.688 0.700 0.700 1.000
2.478 4.135 -1.689 0.700 0.700 1.000
2.502 4.117 -1.688 0.700 0.700 1.000
2.541 4.123 -1.697 0.700 0.700 1.000
2.553 4.087 -1.689 0.700 0.700 1.000
2.579 4.073 -1.689 0.700 0.700 1.000
2.597 4.046 -1.685 0.700 0.700 1.000
1.954 3.004 -1.256 0.700 0.700 1.000
1.967 2.984 -1.252 0.700 0.700 1.000
1.980 2.963 -1.249 0.700 0.700 1.000
1.985 2.931 -1.241 0.700 0.700 1.000
2.022 2.947 -1.253 0.700 0.700 1.000
3.107 3.647 -1.679 0.700 0.700 1.000
3.125 3.623 -1.677 0.700 0.700 1.000
3.144 3.600 -1.675 0.700 0.700 1.000
3.163 3.578 -1.674 0.700 0.700 1.000
0.968 1.081 -0.509 0.700 0.700 1.000
3.199 3.530 -1.669 0.700 0.700 1.000
3.220 3.509 -1.669 0.700 0.700 1.000
0.995 1.071 -0.512 0.700 0.700 1.000
1.004 1.068 -0.514 0.700 0.700 1.000
1.016 1.067 -0.516 0.700 0.700 1.000
1.016 1.054 -0.513 0.700 0.700 1.000
1.021 1.046 -0.512 0.700 0.700 1.000
1.035 1.048 -0.516 0.700 0.700 1.000
3.361 3.361 -1.666 0.700 0.700 1.000
3.377 3.336 -1.663 0.700 0.700 1.000
3.390 3.307 -1.660 0.700 0.700 1.000
3.407 3.284 -1.658 0.700 0.700 1.000
3.425 3.261 -1.657 0.700 0.700 1.000
3.453 3.247 -1.661 0.700 0.700 1.000
3.460 3.214 -1.655 0.700 0.700 1.000
3.479 3.192 -1.654 0.700 0.700 1.000
3.495 3.168 -1.653 0.700 0.700 1.000
3.516 3.147 -1.654 0.700 0.700 1.000
3.542 3.132 -1.657 0.700 0.700 1.000
3.567 3.115 -1.660 0.700 0.700 1.000
3.572 3.081 -1.653 0.700 0.700 1.000
3.598 3.065 -1.656 0.700 0.700 1.000
3.613 3.040 -1.655 0.700 0.700 1.000
3.628 3.015 -1.653 0.700 0.700 1.000
3.649 2.995 -1.654 0.700 0.700 1.000
3.660 2.966 -1.651 0.700 0.700 1.000
3.686 2.950 -1.654 0.700 0.700 1.000
3.693 2.919 -1.650 0.700 0.700 1.000
3.714 2.899 -1.651 0.700 0.700 1.000
3.733 2.877 -1.652 0.700 0.700 1.000
3.754 2.856 -1.653 0.700 0.700 1.000
3.772 2.833 -1.653 0.700 0.700 1.000
3.787 2.809 -1.652 0.700 0.700 1.000
3.795 2.779 -1.648 0.700 0.700 1.000
3.821 2.762 -1.652 0.700 0.700 1.000
3.831 2.733 -1.649 0.700 0.700 1.000
3.841 2.705 -1.646 0.700 0.700 1.000
3.856 2.681 -1.646 0.700 0.700 1.000
3.880 2.662 -1.649 0.700 0.700 1.000
3.884 2.630 -1.644 0.700 0.700 1.000
3.908 2.611 -1.647 0.700 0.700 1.000
3.919 2.584 -1.645 0.700 0.700 1.000
3.938 2.562 -1.646 0.700 0.700 1.000
3.951 2.536 -1.645 0.700 0.700 1.000
3.971 2.514 -1.647 0.700 0.700 1.000
3.983 2.488 -1.646 0.700 0.700 1.000
4.003 2.467 -1.648 0.700 0.700 1.000
4.021 2.444 -1.649 0.700 0.700 1.000
4.032 2.416 -1.647 0.700 0.700 1.000
4.048 2.392 -1.648 0.700 0.700 1.000
4.062 2.367 -1.648 0.700 0.700 1.000
4.077 2.343 -1.648 0.700 0.700 1.000
4.087 2.315 -1.646 0.700 0.700 1.000
4.082 2.280 -1.638 0.700 0.700 1.000
4.119 2.267 -1.648 0.700 0.700 1.000
4.133 2.242 -1.648 0.700 0.700 1.000
4.144 2.215 -1.646 0.700 0.700 1.000
4.145 2.183 -1.642 0.700 0.700 1.000
4.155 2.156 -1.640 0.700 0.700 1.000
4.180 2.136 -1.645 0.700 0.700 1.000
4.200 2.114 -1.648 0.700 0.700 1.000
4.209 2.087 -1.646 0.700 0.700 1.000
4.205 2.052 -1.640 0.700 0.700 1.000
4.211 2.023 -1.637 0.700 0.700 1.000
4.240 2.006 -1.644 0.700 0.700 1.000
4.247 1.977 -1.642 0.700 0.700 1.000
4.266 1.954 -1.644 0.700 0.700 1.000
4.278 1.928 -1.644 0.700 0.700 1.000
4.278 1.896 -1.640 0.700 0.700 1.000
4.279 1.866 -1.636 0.700 0.700 1.000
4.294 1.841 -1.637 0.700 0.700 1.000
4.307 1.815 -1.638 0.700 0.700 1.000
4.335 1.796 -1.644 0.700 0.700 1.000
4.343 1.768 -1.643 0.700 0.700 1.000
4.362 1.745 -1.646 0.700 0.700 1.000
4.364 1.714 -1.643 0.700 0.700 1.000
4.352 1.679 -1.635 0.700 0.700 1.000
4.389 1.662 -1.645 0.700 0.700 1.000
4.388 1.631 -1.641 0.700 0.700 1.000
4.405 1.607 -1.643 0.700 0.700 1.000
4.414 1.579 -1.643 0.700 0.700 1.000
4.405 1.546 -1.636 0.700 0.700 1.000
4.432 1.525 -1.643 0.700 0.700 1.000
4.449 1.500 -1.645 0.700 0.700 1.000
4.459 1.473 -1.646 0.700 0.700 1.000
4.473 1.447 -1.648 0.700 0.700 1.000
4.479 1.419 -1.647 0.700 0.700 1.000
4.487 1.391 -1.646 0.700 0.700 1.000
4.496 1.364 -1.646 0.700 0.700 1.000
4.476 1.328 -1.636 0.700 0.700 1.000
4.485 1.301 -1.637 0.700 0.700 1.000
4.498 1.275 -1.638 0.700 0.700 1.000
4.502 1.246 -1.637 0.700 0.700 1.000
4.510 1.218 -1.637 0.700 0.700 1.000
4.524 1.192 -1.640 0.700 0.700 1.000
4.528 1.164 -1.638 0.700 0.700 1.000
4.534 1.136 -1.638 0.700 0.700 1.000
4.542 1.108 -1.638 0.700 0.700 1.000
4.542 1.079 -1.636 0.700 0.700 1.000
4.550 1.051 -1.636 0.700 0.700 1.000
4.560 1.024 -1.638 0.700 0.700 1.000
4.568 0.996 -1.639 0.700 0.700 1.000
4.570 0.968 -1.637 0.700 0.700 1.000
4.567 0.938 -1.634 0.700 0.700 1.000
4.573 0.910 -1.634 0.700 0.700 1.000
4.582 0.882 -1.635 0.700 0.700 1.000
4.584 0.853 -1.634 0.700 0.700 1.000
4.593 0.826 -1.635 0.700 0.700 1.000
4.605 0.799 -1.638 0.700 0.700 1.000
4.606 0.770 -1.637 0.700 0.700 1.000
4.609 0.742 -1.636 0.700 0.700 1.000
4.616 0.714 -1.637 0.700 0.700 1.000
4.619 0.685 -1.637 0.700 0.700 1.000
4.616 0.656 -1.634 0.700 0.700 1.000
4.623 0.628 -1.635 0.700 0.700 1.000
4.625 0.599 -1.634 0.700 0.700 1.000
4.631 0.571 -1.635 0.700 0.700 1.000
4.640 0.543 -1.637 0.700 0.700 1.000
4.634 0.514 -1.634 0.700 0.700 1.000
4.646 0.486 -1.637 0.700 0.700 1.000
4.649 0.458 -1.637 0.700 0.700 1.000
4.655 0.430 -1.638 0.700 0.700 1.000
4.662 0.402 -1.640 0.700 0.700 1.000
4.668 0.373 -1.641 0.700 0.700 1.000
4.668 0.344 -1.640 0.700 0.700 1.000
4.670 0.316 -1.640 0.700 0.700 1.000
4.681 0.288 -1.644 0.700 0.700 1.000
4.688 0.259 -1.645 0.700 0.700 1.000
4.685 0.230 -1.644 0.700 0.700 1.000
4.686 0.201 -1.644 0.700 0.700 1.000
4.691 0.173 -1.645 0.700 0.700 1.000
4.694 0.144 -1.646 0.700 0.700 1.000
4.697 0.115 -1.646 0.700 0.700 1.000
4.699 0.087 -1.647 0.700 0.700 1.000
4.705 0.058 -1.649 0.700 0.700 1.000
4.695 0.029 -1.645 0.700 0.700 1.000
4.700 -0.000 -1.647 0.700 0.700 1.000
4.702 -0.029 -1.648 0.700 0.700 1.000
4.700 -0.058 -1.647 0.700 0.700 1.000
4.701 -0.087 -1.648 0.700 0.700 1.000
4.702 -0.115 -1.648 0.700 0.700 1.000
4.701 -0.144 -1.648 0.700 0.700 1.000
4.706 -0.173 -1.650 0.700 0.700 1.000
4.699 -0.202 -1.648 0.700 0.700 1.000
4.696 -0.231 -1.648 0.700 0.700 1.000
4.691 -0.259 -1.646 0.700 0.700 1.000
4.712 -0.289 -1.654 0.700 0.700 1.000
4.710 -0.318 -1.654 0.700 0.700 1.000
4.700 -0.347 -1.652 0.700 0.700 1.000
4.707 -0.376 -1.655 0.700 0.700 1.000
4.705 -0.405 -1.655 0.700 0.700 1.000
4.693 -0.433 -1.652 0.700 0.700 1.000
4.691 -0.462 -1.652 0.700 0.700 1.000
4.687 -0.491 -1.652 0.700 0.700 1.000
4.683 -0.519 -1.651 0.700 0.700 1.000
4.689 -0.549 -1.654 0.700 0.700 1.000
4.687 -0.578 -1.655 0.700 0.700 1.000
4.689 -0.608 -1.657 0.700 0.700 1.000
4.684 -0.636 -1.656 0.700 0.700 1.000
4.678 -0.665 -1.656 0.700 0.700 1.000
4.679 -0.694 -1.658 0.700 0.700 1.000
4.675 -0.723 -1.658 0.700 0.700 1.000
4.668 -0.751 -1.657 0.700 0.700 1.000
4.668 -0.780 -1.658 0.700 0.700 1.000
4.664 -0.809 -1.659 0.700 0.700 1.000
4.650 -0.836 -1.656 0.700 0.700 1.000
4.654 -0.867 -1.659 0.700 0.700 1.000
4.652 -0.896 -1.660 0.700 0.700 1.000
4.645 -0.924 -1.660 0.700 0.700 1.000
4.645 -0.954 -1.662 0.700 0.700 1.000
4.630 -0.980 -1.658 0.700 0.700 1.000
4.633 -1.010 -1.662 0.700 0.700 1.000
4.621 -1.038 -1.660 0.700 0.700 1.000
4.624 -1.068 -1.663 0.700 0.700 1.000
4.619 -1.097 -1.664 0.700 0.700 1.000
4.615 -1.126 -1.665 0.700 0.700 1.000
4.605 -1.153 -1.663 0.700 0.700 1.000
4.601 -1.183 -1.665 0.700 0.700 1.000
4.600 -1.212 -1.667 0.700 0.700 1.000
4.589 -1.240 -1.666 0.700 0.700 1.000
4.581 -1.268 -1.666 0.700 0.700 1.000
4.573 -1.296 -1.666 0.700 0.700 1.000
4.565 -1.324 -1.666 0.700 0.700 1.000
4.560 -1.353 -1.667 0.700 0.700 1.000
4.554 -1.381 -1.668 0.700 0.700 1.000
4.538 -1.407 -1.665 0.700 0.700 1.000
4.536 -1.437 -1.668 0.700 0.700 1.000
4.531 -1.466 -1.669 0.700 0.700 1.000
4.516 -1.492 -1.667 0.700 0.700 1.000
4.508 -1.520 -1.667 0.700 0.700 1.000
4.500 -1.548 -1.668 0.700 0.700 1.000
4.487 -1.574 -1.666 0.700 0.700 1.000
4.479 -1.603 -1.667 0.700 0.700 1.000
4.472 -1.631 -1.668 0.700 0.700 1.000
4.462 -1.659 -1.668 0.700 0.700 1.000
4.452 -1.686 -1.668 0.700 0.700 1.000
4.429 -1.708 -1.664 0.700 0.700 1.000
4.430 -1.740 -1.668 0.700 0.700 1.000
4.425 -1.770 -1.670 0.700 0.700 1.000
4.409 -1.795 -1.668 0.700 0.700 1.000
4.400 -1.822 -1.669 0.700 0.700 1.000
4.387 -1.849 -1.668 0.700 0.700 1.000
4.375 -1.875 -1.668 0.700 0.700 1.000
4.373 -1.906 -1.672 0.700 0.700 1.000
4.355 -1.931 -1.670 0.700 0.700 1.000
4.350 -1.960 -1.672 0.700 0.700 1.000
4.330 -1.983 -1.669 0.700 0.700 1.000
4.317 -2.010 -1.669 0.700 0.700 1.000
4.310 -2.039 -1.671 0.700 0.700 1.000
4.289 -2.061 -1.668 0.700 0.700 1.000
4.278 -2.088 -1.668 0.700 0.700 1.000
4.272 -2.118 -1.671 0.700 0.700 1.000
4.256 -2.142 -1.670 0.700 0.700 1.000
4.246 -2.170 -1.671 0.700 0.700 1.000
4.222 -2.191 -1.667 0.700 0.700 1.000
4.217 -2.221 -1.670 0.700 0.700 1.000
4.205 -2.247 -1.671 0.700 0.700 1.000
4.190 -2.273 -1.670 0.700 0.700 1.000
4.180 -2.301 -1.672 0.700 0.700 1.000
4.171 -2.329 -1.674 0.700 0.700 1.000
4.147 -2.349 -1.670 0.700 0.700 1.000
4.136 -2.376 -1.672 0.700 0.700 1.000
4.121 -2.402 -1.672 0.700 0.700 1.000
4.111 -2.430 -1.673 0.700 0.700 1.000
4.096 -2.455 -1.674 0.700 0.700 1.000
4.079 -2.479 -1.673 0.700 0.700 1.000
4.064 -2.504 -1.673 0.700 0.700 1.000
4.052 -2.531 -1.674 0.700 0.700 1.000
4.035 -2.555 -1.674 0.700 0.700 1.000
4.027 -2.585 -1.677 0.700 0.700 1.000
4.001 -2.603 -1.673 0.700 0.700 1.000
3.990 -2.631 -1.675 0.700 0.700 1.000
3.970 -2.653 -1.673 0.700 0.700 1.000
3.957 -2.679 -1.675 0.700 0.700 1.000
3.939 -2.703 -1.674 0.700 0.700 1.000
3.926 -2.729 -1.676 0.700 0.700 1.000
3.918 -2.760 -1.679 0.700 0.700 1.000
3.893 -2.778 -1.676 0.700 0.700 1.000
3.875 -2.801 -1.676 0.700 0.700 1.000
3.863 -2.829 -1.678 0.700 0.700 1.000
3.843 -2.850 -1.677 0.700 0.700 1.000
3.826 -2.874 -1.677 0.700 0.700 1.000
3.802 -2.893 -1.674 0.700 0.700 1.000
3.790 -2.921 -1.677 0.700 0.700 1.000
3.770 -2.942 -1.676 0.700 0.700 1.000
3.754 -2.967 -1.677 0.700 0.700 1.000
3.738 -2.991 -1.678 0.700 0.700 1.000
3.719 -3.014 -1.677 0.700 0.700 1.000
1.251 -1.027 -0.567 0.700 0.700 1.000
1.229 -1.021 -0.560 0.700 0.700 1.000
1.234 -1.039 -0.565 0.700 0.700 1.000
1.215 -1.035 -0.559 0.700 0.700 1.000
1.217 -1.050 -0.563 0.700 0.700 1.000
1.208 -1.055 -0.562 0.700 0.700 1.000
1.191 -1.053 -0.557 0.700 0.700 1.000
3.643 -3.262 -1.714 0.700 0.700 1.000
3.656 -3.313 -1.729 0.700 0.700 1.000
3.638 -3.338 -1.730 0.700 0.700 1.000
3.612 -3.355 -1.728 0.700 0.700 1.000
3.548 -3.336 -1.707 0.700 0.700 1.000
3.569 -3.398 -1.727 0.700 0.700 1.000
3.327 -3.626 -1.724 0.700 0.700 1.000
3.330 -3.674 -1.738 0.700 0.700 1.000
3.315 -3.703 -1.742 0.700 0.700 1.000
3.273 -3.702 -1.732 0.700 0.700 1.000
3.175 -3.635 -1.691 0.700 0.700 1.000
3.163 -3.667 -1.697 0.700 0.700 1.000
3.199 -3.755 -1.729 0.700 0.700 1.000
3.176 -3.774 -1.729 0.700 0.700 1.000
3.169 -3.814 -1.738 0.700 0.700 1.000
3.141 -3.827 -1.735 0.700 0.700 1.000
2.919 -3.602 -1.625 0.700 0.700 1.000
2.848 -3.559 -1.597 0.700 0.700 1.000
2.839 -3.592 -1.605 0.700 0.700 1.000
2.841 -3.640 -1.618 0.700 0.700 1.000
2.818 -3.657 -1.618 0.700 0.700 1.000
2.768 -3.638 -1.602 0.700 0.700 1.000
2.974 -3.959 -1.735 0.700 0.700 1.000
2.954 -3.983 -1.738 0.700 0.700 1.000
2.937 -4.011 -1.742 0.700 0.700 1.000
2.925 -4.046 -1.750 0.700 0.700 1.000
2.908 -4.076 -1.755 0.700 0.700 1.000
2.852 -4.050 -1.736 0.700 0.700 1.000
2.848 -4.098 -1.749 0.700 0.700 1.000
2.844 -4.145 -1.761 0.700 0.700 1.000
2.783 -4.110 -1.740 0.700 0.700 1.000
2.712 -4.059 -1.711 0.700 0.700 1.000
2.722 -4.128 -1.733 0.700 0.700 1.000
3.059 -4.702 -1.966 0.700 0.700 1.000
2.977 -4.638 -1.932 0.700 0.700 1.000
2.826 -4.462 -1.851 0.700 0.700 1.000
2.601 -4.222 -1.738 0.700 0.700 1.000
0.695 -3.185 -1.142 0.700 0.700 1.000
0.685 -3.238 -1.160 0.700 0.700 1.000
0.670 -3.265 -1.168 0.700 0.700 1.000
0.651 -3.272 -1.169 0.700 0.700 1.000
0.628 -3.262 -1.164 0.700 0.700 1.000
0.599 -3.218 -1.147 0.700 0.700 1.000
0.580 -3.225 -1.148 0.700 0.700 1.000
0.566 -3.260 -1.159 0.700 0.700 1.000
0.552 -3.302 -1.173 0.700 0.700 1.000
0.533 -3.313 -1.176 0.700 0.700 1.000
0.508 -3.284 -1.165 0.700 0.700 1.000
0.473 -3.191 -1.130 0.700 0.700 1.000
0.441 -3.105 -1.099 0.700 0.700 1.000
0.436 -3.213 -1.136 0.700 0.700 1.000
0.423 -3.268 -1.155 0.700 0.700 1.000
0.408 -3.306 -1.167 0.700 0.700 1.000
0.386 -3.295 -1.163 0.700 0.700 1.000
0.365 -3.295 -1.162 0.700 0.700 1.000
0.345 -3.297 -1.162 0.700 0.700 1.000
0.327 -3.317 -1.168 0.700 0.700 1.000
0.305 -3.306 -1.164 0.700 0.700 1.000
0.281 -3.264 -1.148 0.700 0.700 1.000
0.262 -3.274 -1.151 0.700 0.700 1.000
0.239 -3.246 -1.141 0.700 0.700 1.000
0.222 -3.280 -1.152 0.700 0.700 1.000
0.203 -3.304 -1.160 0.700 0.700 1.000
0.182 -3.298 -1.157 0.700 0.700 1.000
0.162 -3.295 -1.156 0.700 0.700 1.000
0.142 -3.294 -1.156 0.700 0.700 1.000
0.121 -3.292 -1.154 0.700 0.700 1.000
0.101 -3.307 -1.159 0.700 0.700 1.000
0.081 -3.296 -1.155 0.700 0.700 1.000
0.062 -3.365 -1.179 0.700 0.700 1.000
0.041 -3.350 -1.174 0.700 0.700 1.000
0.021 -3.343 -1.171 0.700 0.700 1.000
0.000 -3.308 -1.159 0.700 0.700 1.000
-0.020 -3.267 -1.145 0.700 0.700 1.000
-0.042 -3.391 -1.189 0.700 0.700 1.000
-0.062 -3.389 -1.188 0.700 0.700 1.000
-0.084 -3.411 -1.196 0.700 0.700 1.000
-0.107 -3.477 -1.219 0.700 0.700 1.000
-0.128 -3.474 -1.218 0.700 0.700 1.000
-0.146 -3.406 -1.195 0.700 0.700 1.000
-0.170 -3.455 -1.212 0.700 0.700 1.000
-0.191 -3.452 -1.211 0.700 0.700 1.000
-0.214 -3.485 -1.224 0.700 0.700 1.000
-0.236 -3.497 -1.228 0.700 0.700 1.000
-0.258 -3.493 -1.227 0.700 0.700 1.000
-0.278 -3.473 -1.221 0.700 0.700 1.000
-0.302 -3.512 -1.235 0.700 0.700 1.000
-0.336 -3.642 -1.282 0.700 0.700 1.000
-0.523 -4.466 -1.576 0.700 0.700 1.000
-0.581 -4.707 -1.662 0.700 0.700 1.000
-0.610 -4.709 -1.664 0.700 0.700 1.000
-0.638 -4.695 -1.660 0.700 0.700 1.000
-0.668 -4.704 -1.665 0.700 0.700 1.000
-0.698 -4.707 -1.668 0.700 0.700 1.000
-0.728 -4.712 -1.671 0.700 0.700 1.000
-0.757 -4.707 -1.671 0.700 0.700 1.000
-0.786 -4.701 -1.670 0.700 0.700 1.000
-0.816 -4.701 -1.672 0.700 0.700 1.000
-0.844 -4.693 -1.671 0.700 0.700 1.000
-0.872 -4.685 -1.670 0.700 0.700 1.000
-0.903 -4.692 -1.674 0.700 0.700 1.000
-0.932 -4.687 -1.675 0.700 0.700 1.000
-0.961 -4.681 -1.675 0.700 0.700 1.000
-0.991 -4.683 -1.677 0.700 0.700 1.000
-1.021 -4.683 -1.680 0.700 0.700 1.000
-1.050 -4.676 -1.680 0.700 0.700 1.000
-1.080 -4.673 -1.681 0.700 0.700 1.000
-1.110 -4.674 -1.683 0.700 0.700 1.000
-1.139 -4.668 -1.684 0.700 0.700 1.000
-1.166 -4.655 -1.682 0.700 0.700 1.000
-1.196 -4.655 -1.684 0.700 0.700 1.000
-1.225 -4.647 -1.684 0.700 0.700 1.000
-1.255 -4.646 -1.687 0.700 0.700 1.000
-1.286 -4.646 -1.689 0.700 0.700 1.000
-1.313 -4.634 -1.688 0.700 0.700 1.000
-1.343 -4.630 -1.689 0.700 0.700 1.000
-1.373 -4.627 -1.691 0.700 0.700 1.000
-1.403 -4.626 -1.694 0.700 0.700 1.000
-1.432 -4.619 -1.695 0.700 0.700 1.000
-1.461 -4.612 -1.695 0.700 0.700 1.000
-1.492 -4.612 -1.699 0.700 0.700 1.000
-1.524 -4.614 -1.703 0.700 0.700 1.000
-1.552 -4.604 -1.703 0.700 0.700 1.000
-1.581 -4.594 -1.703 0.700 0.700 1.000
-1.611 -4.592 -1.705 0.700 0.700 1.000
-1.641 -4.585 -1.707 0.700 0.700 1.000
-1.668 -4.573 -1.706 0.700 0.700 1.000
-1.699 -4.571 -1.709 0.700 0.700 1.000
-1.727 -4.562 -1.709 0.700 0.700 1.000
-1.760 -4.563 -1.714 0.700 0.700 1.000
-1.791 -4.559 -1.716 0.700 0.700 1.000
-1.817 -4.543 -1.715 0.700 0.700 1.000
-1.847 -4.537 -1.717 0.700 0.700 1.000
-1.878 -4.534 -1.720 0.700 0.700 1.000
-1.909 -4.529 -1.722 0.700 0.700 1.000
-1.936 -4.516 -1.722 0.700 0.700 1.000
-1.967 -4.512 -1.725 0.700 0.700 1.000
-1.999 -4.510 -1.729 0.700 0.700 1.000
-2.026 -4.495 -1.728 0.700 0.700 1.000
-2.056 -4.489 -1.730 0.700 0.700 1.000
-2.088 -4.487 -1.734 0.700 0.700 1.000
-2.116 -4.474 -1.734 0.700 0.700 1.000
-2.146 -4.467 -1.737 0.700 0.700 1.000
-2.178 -4.463 -1.740 0.700 0.700 1.000
-2.207 -4.453 -1.742 0.700 0.700 1.000
-2.236 -4.442 -1.743 0.700 0.700 1.000
-2.268 -4.437 -1.746 0.700 0.700 1.000
-2.299 -4.432 -1.750 0.700 0.700 1.000
-2.327 -4.418 -1.750 0.700 0.700 1.000
-2.357 -4.410 -1.752 0.700 0.700 1.000
-2.389 -4.405 -1.756 0.700 0.700 1.000
-2.420 -4.397 -1.759 0.700 0.700 1.000
-2.451 -4.389 -1.762 0.700 0.700 1.000
-2.479 -4.375 -1.762 0.700 0.700 1.000
-2.512 -4.372 -1.767 0.700 0.700 1.000
-2.538 -4.354 -1.766 0.700 0.700 1.000
-2.565 -4.340 -1.767 0.700 0.700 1.000
-2.599 -4.335 -1.771 0.700 0.700 1.000
-2.627 -4.323 -1.773 0.700 0.700 1.000
-2.657 -4.313 -1.775 0.700 0.700 1.000
-2.689 -4.305 -1.779 0.700 0.700 1.000
-2.717 -4.290 -1.779 0.700 0.700 1.000
-2.741 -4.271 -1.779 0.700 0.700 1.000
-2.782 -4.277 -1.788 0.700 0.700 1.000
-2.816 -4.271 -1.793 0.700 0.700 1.000
-2.847 -4.261 -1.796 0.700 0.700 1.000
-2.868 -4.235 -1.792 0.700 0.700 1.000
-2.900 -4.227 -1.797 0.700 0.700 1.000
-2.929 -4.214 -1.798 0.700 0.700 1.000
-2.959 -4.202 -1.801 0.700 0.700 1.000
-2.985 -4.184 -1.801 0.700 0.700 1.000
-3.017 -4.175 -1.805 0.700 0.700 1.000
-3.040 -4.151 -1.803 0.700 0.700 1.000
-3.075 -4.147 -1.809 0.700 0.700 1.000
-3.117 -4.149 -1.818 0.700 0.700 1.000
-3.167 -4.162 -1.833 0.700 0.700 1.000
-3.189 -4.139 -1.831 0.700 0.700 1.000
-3.210 -4.113 -1.828 0.700 0.700 1.000
-3.249 -4.111 -1.836 0.700 0.700 1.000
-3.377 -4.014 -1.838 0.700 0.700 1.000
-3.397 -3.987 -1.836 0.700 0.700 1.000
-3.412 -3.955 -1.830 0.700 0.700 1.000
-3.445 -3.945 -1.835 0.700 0.700 1.000
-3.477 -3.932 -1.839 0.700 0.700 1.000
-3.497 -3.907 -1.837 0.700 0.700 1.000
-3.520 -3.884 -1.837 0.700 0.700 1.000
-3.552 -3.871 -1.841 0.700 0.700 1.000
-3.564 -3.836 -1.835 0.700 0.700 1.000
-3.586 -3.813 -1.834 0.700 0.700 1.000
-3.604 -3.785 -1.832 0.700 0.700 1.000
-3.633 -3.769 -1.834 0.700 0.700 1.000
-3.651 -3.742 -1.832 0.700 0.700 1.000
-3.672 -3.717 -1.831 0.700 0.700 1.000
-3.698 -3.698 -1.833 0.700 0.700 1.000
-3.718 -3.673 -1.831 0.700 0.700 1.000
-3.737 -3.646 -1.830 0.700 0.700 1.000
-3.758 -3.622 -1.829 0.700 0.700 1.000
-3.784 -3.603 -1.831 0.700 0.700 1.000
-3.802 -3.576 -1.829 0.700 0.700 1.000
-3.824 -3.552 -1.829 0.700 0.700 1.000
-3.846 -3.529 -1.829 0.700 0.700 1.000
-3.863 -3.501 -1.827 0.700 0.700 1.000
-3.880 -3.474 -1.825 0.700 0.700 1.000
-3.907 -3.455 -1.828 0.700 0.700 1.000
-3.927 -3.429 -1.827 0.700 0.700 1.000
-3.945 -3.403 -1.826 0.700 0.700 1.000
-3.967 -3.380 -1.826 0.700 0.700 1.000
-3.983 -3.352 -1.824 0.700 0.700 1.000
-4.010 -3.332 -1.827 0.700 0.700 1.000
-4.025 -3.304 -1.825 0.700 0.700 1.000
-4.043 -3.277 -1.824 0.700 0.700 1.000
-4.062 -3.251 -1.823 0.700 0.700 1.000
-4.080 -3.225 -1.822 0.700 0.700 1.000
-4.102 -3.201 -1.824 0.700 0.700 1.000
-4.123 -3.177 -1.824 0.700 0.700 1.000
-4.140 -3.150 -1.823 0.700 0.700 1.000
-4.158 -3.123 -1.822 0.700 0.700 1.000
-4.178 -3.099 -1.823 0.700 0.700 1.000
-4.194 -3.071 -1.822 0.700 0.700 1.000
-4.218 -3.049 -1.824 0.700 0.700 1.000
-4.233 -3.020 -1.822 0.700 0.700 1.000
-4.254 -2.996 -1.823 0.700 0.700 1.000
-4.267 -2.966 -1.821 0.700 0.700 1.000
-4.291 -2.944 -1.824 0.700 0.700 1.000
-4.312 -2.920 -1.825 0.700 0.700 1.000
-4.324 -2.889 -1.822 0.700 0.700 1.000
-4.340 -2.861 -1.822 0.700 0.700 1.000
-4.359 -2.836 -1.822 0.700 0.700 1.000
-4.379 -2.811 -1.824 0.700 0.700 1.000
-4.396 -2.784 -1.824 0.700 0.700 1.000
-4.413 -2.757 -1.824 0.700 0.700 1.000
-4.425 -2.727 -1.822 0.700 0.700 1.000
-4.442 -2.700 -1.822 0.700 0.700 1.000
-4.460 -2.673 -1.822 0.700 0.700 1.000
-4.478 -2.647 -1.823 0.700 0.700 1.000
-4.491 -2.618 -1.822 0.700 0.700 1.000
-4.509 -2.591 -1.822 0.700 0.700 1.000
-4.524 -2.563 -1.822 0.700 0.700 1.000
-4.545 -2.538 -1.824 0.700 0.700 1.000
-4.557 -2.508 -1.823 0.700 0.700 1.000
-4.567 -2.477 -1.821 0.700 0.700 1.000
-4.586 -2.451 -1.822 0.700 0.700 1.000
-4.596 -2.420 -1.820 0.700 0.700 1.000
-4.611 -2.392 -1.820 0.700 0.700 1.000
-4.624 -2.363 -1.820 0.700 0.700 1.000
-4.635 -2.333 -1.818 0.700 0.700 1.000
-4.657 -2.308 -1.822 0.700 0.700 1.000
-4.669 -2.279 -1.821 0.700 0.700 1.000
-4.677 -2.247 -1.818 0.700 0.700 1.000
-4.696 -2.221 -1.820 0.700 0.700 1.000
-4.708 -2.191 -1.820 0.700 0.700 1.000
-4.717 -2.161 -1.818 0.700 0.700 1.000
-4.557 -2.054 -1.752 0.700 0.700 1.000
-4.564 -2.023 -1.750 0.700 0.700 1.000
-4.559 -1.988 -1.743 0.700 0.700 1.000
-4.565 -1.957 -1.740 0.700 0.700 1.000
-4.604 -1.940 -1.751 0.700 0.700 1.000
-4.638 -1.921 -1.759 0.700 0.700 1.000
-4.631 1.852 -1.791 0.700 0.700 1.000
-4.605 1.875 -1.785 0.700 0.700 1.000
-4.610 1.909 -1.791 0.700 0.700 1.000
-4.601 1.939 -1.793 0.700 0.700 1.000
-4.584 1.965 -1.791 0.700 0.700 1.000
-4.566 1.991 -1.789 0.700 0.700 1.000
-4.549 2.017 -1.787 0.700 0.700 1.000
-4.551 2.051 -1.792 0.700 0.700 1.000
-4.528 2.074 -1.788 0.700 0.700 1.000
-4.516 2.102 -1.788 0.700 0.700 1.000
-4.502 2.129 -1.788 0.700 0.700 1.000
-4.482 2.153 -1.785 0.700 0.700 1.000
-4.470 2.182 -1.786 0.700 0.700 1.000
-4.453 2.207 -1.784 0.700 0.700 1.000
-4.448 2.239 -1.788 0.700 0.700 1.000
-4.432 2.265 -1.787 0.700 0.700 1.000
-4.421 2.294 -1.788 0.700 0.700 1.000
-4.409 2.322 -1.789 0.700 0.700 1.000
-4.395 2.349 -1.789 0.700 0.700 1.000
-4.384 2.378 -1.791 0.700 0.700 1.000
-4.361 2.400 -1.787 0.700 0.700 1.000
-4.343 2.425 -1.786 0.700 0.700 1.000
-4.322 2.448 -1.783 0.700 0.700 1.000
-4.308 2.476 -1.784 0.700 0.700 1.000
-4.301 2.506 -1.787 0.700 0.700 1.000
-4.284 2.532 -1.787 0.700 0.700 1.000
-4.263 2.555 -1.785 0.700 0.700 1.000
-4.243 2.579 -1.783 0.700 0.700 1.000
-4.233 2.608 -1.785 0.700 0.700 1.000
-4.207 2.628 -1.781 0.700 0.700 1.000
-4.191 2.654 -1.781 0.700 0.700 1.000
-4.171 2.677 -1.779 0.700 0.700 1.000
-4.149 2.699 -1.777 0.700 0.700 1.000
-4.133 2.725 -1.777 0.700 0.700 1.000
-4.114 2.749 -1.777 0.700 0.700 1.000
-4.103 2.778 -1.779 0.700 0.700 1.000
-4.098 2.812 -1.784 0.700 0.700 1.000
-4.081 2.837 -1.785 0.700 0.700 1.000
-4.056 2.856 -1.781 0.700 0.700 1.000
-4.032 2.877 -1.778 0.700 0.700 1.000
-4.024 2.908 -1.782 0.700 0.700 1.000
-3.990 2.921 -1.775 0.700 0.700 1.000
-3.971 2.945 -1.775 0.700 0.700 1.000
-3.960 2.975 -1.778 0.700 0.700 1.000
-3.939 2.997 -1.777 0.700 0.700 1.000
-3.924 3.024 -1.779 0.700 0.700 1.000
-3.899 3.043 -1.776 0.700 0.700 1.000
-3.894 3.077 -1.782 0.700 0.700 1.000
-3.870 3.098 -1.780 0.700 0.700 1.000
-3.850 3.120 -1.779 0.700 0.700 1.000
-3.829 3.143 -1.779 0.700 0.700 1.000
-3.804 3.161 -1.776 0.700 0.700 1.000
-3.789 3.188 -1.778 0.700 0.700 1.000
-3.773 3.215 -1.780 0.700 0.700 1.000
-3.754 3.238 -1.780 0.700 0.700 1.000
-3.732 3.260 -1.779 0.700 0.700 1.000
-3.721 3.290 -1.783 0.700 0.700 1.000
-3.705 3.317 -1.785 0.700 0.700 1.000
-3.691 3.345 -1.788 0.700 0.700 1.000
-3.669 3.367 -1.788 0.700 0.700 1.000
-3.647 3.388 -1.787 0.700 0.700 1.000
-3.618 3.403 -1.783 0.700 0.700 1.000
-3.611 3.438 -1.790 0.700 0.700 1.000
-3.602 3.471 -1.796 0.700 0.700 1.000
-3.183 3.830 -1.788 0.700 0.700 1.000
-3.159 3.850 -1.788 0.700 0.700 1.000
-3.137 3.870 -1.789 0.700 0.700 1.000
-3.114 3.891 -1.789 0.700 0.700 1.000
-3.088 3.907 -1.788 0.700 0.700 1.000
-3.061 3.922 -1.786 0.700 0.700 1.000
-3.032 3.934 -1.783 0.700 0.700 1.000
-0.832 1.093 -0.493 0.700 0.700 1.000
-0.862 1.148 -0.515 0.700 0.700 1.000
-0.899 1.212 -0.542 0.700 0.700 1.000
-2.912 3.977 -1.770 0.700 0.700 1.000
-2.896 4.007 -1.775 0.700 0.700 1.000
-2.869 4.021 -1.774 0.700 0.700 1.000
-2.825 4.011 -1.762 0.700 0.700 1.000
-2.797 4.024 -1.760 0.700 0.700 1.000
-2.775 4.044 -1.761 0.700 0.700 1.000
-2.757 4.072 -1.766 0.700 0.700 1.000
-2.722 4.073 -1.759 0.700 0.700 1.000
-2.694 4.085 -1.757 0.700 0.700 1.000
-2.676 4.113 -1.762 0.700 0.700 1.000
-2.639 4.111 -1.754 0.700 0.700 1.000
-2.629 4.151 -1.764 0.700 0.700 1.000
-2.601 4.163 -1.762 0.700 0.700 1.000
-2.570 4.171 -1.759 0.700 0.700 1.000
-2.537 4.175 -1.754 0.700 0.700 1.000
-2.512 4.191 -1.754 0.700 0.700 1.000
-2.481 4.198 -1.751 0.700 0.700 1.000
-2.456 4.213 -1.751 0.700 0.700 1.000
-2.427 4.223 -1.749 0.700 0.700 1.000
-2.392 4.222 -1.742 0.700 0.700 1.000
-2.353 4.213 -1.732 0.700 0.700 1.000
-2.331 4.236 -1.736 0.700 0.700 1.000
-2.312 4.262 -1.741 0.700 0.700 1.000
-2.284 4.274 -1.740 0.700 0.700 1.000
-2.250 4.273 -1.734 0.700 0.700 1.000
-2.210 4.260 -1.723 0.700 0.700 1.000
-2.179 4.263 -1.719 0.700 0.700 1.000
-2.158 4.287 -1.723 0.700 0.700 1.000
-2.132 4.301 -1.724 0.700 0.700 1.000
-2.097 4.298 -1.717 0.700 0.700 1.000
-2.074 4.316 -1.719 0.700 0.700 1.000
-2.039 4.311 -1.712 0.700 0.700 1.000
-2.009 4.317 -1.710 0.700 0.700 1.000
-1.970 4.302 -1.699 0.700 0.700 1.000
-1.953 4.333 -1.706 0.700 0.700 1.000
-1.921 4.333 -1.702 0.700 0.700 1.000
-1.897 4.351 -1.704 0.700 0.700 1.000
